150.00  150.00  150.00  150.00  150.00  150.00  150.00  150.00  150.00  150.00  150.00  150.00  150.00  150.00  149.99  149.95  149.80  149.25  147.66  144.14  138.52  131.96  125.76  120.46  116.43  113.90  112.82  113.16  114.59  115.90  115.74  113.79  110.79  107.62  104.91  102.81  101.09   99.63   98.53   97.69   96.93   96.02   94.82   93.48   91.98   90.55   89.42   88.58   87.85   87.15   86.45   85.72   84.79   83.39   81.57   79.27   76.15   72.31   69.29   66.76   65.35   65.66   66.98   68.25   69.13   69.59   69.91   70.28   70.59   70.64   70.40   70.02   69.64   69.38   69.05   68.42   67.52   66.47   65.46   64.83   64.52   64.12   63.40   62.45   61.59   61.03   60.60   60.25   59.97   59.74   59.75   59.84   59.82   59.66   59.51   59.43   59.39   59.28   58.93   58.37   57.78   57.19   56.55   56.29   56.29
150.00  150.00  150.00  150.00  150.00  150.00  150.00  150.00  150.00  150.00  150.00  150.00  150.00  149.99  149.97  149.89  149.65  148.88  146.83  142.59  136.39  129.75  123.80  118.67  114.72  112.16  110.82  110.67  111.50  112.27  111.87  109.89  106.87  103.88  101.83  100.41   99.07   97.60   96.18   95.06   94.20   93.28   92.09   90.73   89.30   88.00   87.03   86.35   85.79   85.22   84.55   83.80   82.88   81.50   79.71   77.58   74.91   71.80   69.08   66.30   64.16   63.69   64.63   65.95   67.07   67.76   68.30   68.92   69.44   69.60   69.43   69.15   68.90   68.76   68.52   67.91   66.93   65.66   64.27   63.16   62.42   61.73   60.87   59.94   59.32   59.20   59.21   59.19   59.23   59.32   59.53   59.69   59.58   59.25   58.93   58.74   58.63   58.53   58.29   57.89   57.43   57.00   56.54   56.34   56.34
150.00  150.00  150.00  150.00  150.00  150.00  150.00  150.00  150.00  150.00  150.00  150.00  149.99  149.97  149.90  149.73  149.33  148.38  146.09  141.55  135.21  128.72  122.90  117.77  113.69  110.84  108.95  108.00  107.94  108.10  107.62  105.75  102.68   99.72   98.20   97.29   96.07   94.44   92.79   91.49   90.51   89.52   88.30   87.02   85.87   84.90   84.17   83.65   83.27   82.85   82.19   81.32   80.38   79.13   77.50   75.56   73.22   70.44   67.47   64.11   61.36   60.44   61.25   62.75   64.14   65.14   66.06   67.13   67.99   68.33   68.26   68.08   67.99   68.00   67.89   67.40   66.44   65.05   63.40   61.91   60.76   59.73   58.60   57.46   56.81   56.94   57.34   57.76   58.22   58.64   58.98   59.10   58.89   58.45   58.04   57.77   57.63   57.59   57.49   57.32   57.08   56.80   56.45   56.23   56.23
150.00  150.00  150.00  150.00  150.00  150.00  150.00  150.00  150.00  150.00  150.00  149.99  149.97  149.91  149.72  149.33  148.69  147.64  145.53  141.43  135.61  129.43  123.50  118.03  113.53  110.11  107.43  105.46  104.42  104.06  103.62  101.98   99.00   96.11   94.77   93.86   92.29   90.19   88.37   87.01   85.93   84.82   83.48   82.23   81.48   81.08   80.81   80.52   80.29   79.95   79.21   78.10   77.06   75.98   74.62   72.80   70.31   67.05   63.22   59.23   56.38   55.73   56.84   58.59   60.15   61.41   62.84   64.57   65.97   66.67   66.81   66.80   66.89   67.05   67.05   66.65   65.77   64.41   62.75   61.17   59.87   58.65   57.29   55.84   54.91   54.87   55.26   55.90   56.71   57.37   57.79   57.94   57.84   57.51   57.13   56.85   56.71   56.73   56.78   56.79   56.70   56.49   56.14   55.88   55.88
150.00  150.00  150.00  150.00  150.00  150.00  150.00  150.00  150.00  150.00  150.00  149.98  149.93  149.76  149.34  148.56  147.55  146.53  145.05  142.04  137.19  131.32  125.08  119.06  113.97  109.92  106.45  103.55  101.70  100.84  100.25   98.73   96.10   93.49   91.96   90.35   87.57   84.23   82.03   80.73   79.72   78.65   77.23   76.06   75.80   76.12   76.47   76.50   76.36   76.03   75.16   73.74   72.44   71.46   70.50   68.87   66.07   62.05   57.40   53.12   50.68   50.55   51.91   53.63   55.06   56.35   58.27   60.78   62.98   64.29   64.79   65.02   65.31   65.65   65.78   65.50   64.75   63.54   62.03   60.57   59.35   58.18   56.80   55.22   53.88   53.16   52.98   53.41   54.22   54.85   55.26   55.64   56.10   56.33   56.25   56.07   55.97   56.06   56.20   56.30   56.24   55.99   55.61   55.31   55.31
150.00  150.00  150.00  150.00  150.00  150.00  150.00  150.00  150.00  150.00  149.99  149.95  149.84  149.51  148.74  147.44  146.00  145.00  144.15  142.25  138.41  132.97  126.64  120.25  114.68  110.12  106.06  102.60  100.31   98.95   97.85   96.22   93.99   91.71   89.66   86.60   81.47   75.63   72.24   70.86   70.17   69.58   68.60   67.93   68.29   69.28   70.34   70.78   70.78   70.51   69.58   67.91   66.32   65.42   64.93   63.66   60.79   56.57   51.99   48.06   45.91   45.61   46.52   47.88   49.05   50.26   52.57   55.79   58.77   60.76   61.70   62.15   62.69   63.42   63.95   63.95   63.37   62.33   61.04   59.79   58.77   57.76   56.55   55.06   53.43   51.97   50.97   50.69   50.86   50.87   50.93   51.61   53.04   54.38   55.04   55.21   55.30   55.51   55.73   55.84   55.72   55.43   55.04   54.74   54.74
150.00  150.00  150.00  150.00  150.00  150.00  150.00  150.00  150.00  149.99  149.96  149.87  149.65  149.10  147.96  146.20  144.39  143.26  142.63  141.33  138.30  133.52  127.53  121.16  115.38  110.47  106.01  102.21   99.67   97.83   96.12   94.23   92.16   89.94   87.13   82.24   74.14   64.71   58.65   56.49   56.32   56.97   57.32   57.69   58.84   60.30   62.00   62.82   63.05   63.07   62.53   60.97   59.28   58.40   58.19   57.20   54.49   50.71   47.14   44.10   41.86   40.38   40.00   41.10   42.46   43.84   46.73   50.44   53.73   56.07   57.32   58.00   58.89   60.23   61.44   61.97   61.68   60.84   59.81   58.89   58.12   57.25   56.14   54.76   53.15   51.45   49.99   49.00   48.13   47.00   46.20   46.71   48.82   51.35   53.08   53.96   54.47   54.91   55.25   55.39   55.26   54.94   54.55   54.23   54.23
150.00  150.00  150.00  150.00  150.00  150.00  150.00  150.00  149.99  149.97  149.90  149.69  149.24  148.37  146.83  144.76  142.84  141.65  140.92  139.74  137.26  133.26  127.91  121.83  116.01  110.83  105.99  101.91   99.11   96.81   94.52   92.24   89.98   87.40   83.60   76.97   66.45   53.93   44.52   40.90   41.23   43.31   45.07   46.21   48.59   50.37   52.33   52.72   53.05   53.75   54.77   53.84   52.14   51.07   50.58   49.82   47.55   44.56   42.14   39.98   37.37   34.34   32.66   34.91   36.82   37.74   41.45   45.53   48.32   50.53   52.11   53.22   54.58   56.50   58.38   59.50   59.66   59.19   58.52   57.93   57.39   56.63   55.51   54.09   52.56   51.02   49.58   48.35   46.88   44.97   43.31   43.05   44.78   47.67   50.20   51.90   53.08   53.95   54.53   54.77   54.67   54.35   53.93   53.60   53.60
150.00  150.00  150.00  150.00  150.00  150.00  150.00  150.00  149.98  149.93  149.77  149.35  148.54  147.27  145.39  143.23  141.51  140.46  139.64  138.38  136.24  132.96  128.39  122.83  117.05  111.50  106.20  101.74   98.56   95.72   92.79   89.83   86.79   83.16   77.98   70.04   58.77   45.79   35.13   30.39   30.87   33.66   35.62   34.71   40.16   42.42   43.87   40.65   40.54   42.28   48.12   48.61   47.10   45.50   42.90   41.91   40.40   38.65   36.90   35.12   32.23   28.38   26.33    0.00    0.00   33.09   37.42   41.63   42.50   44.11   46.31   48.31   50.33   52.70   54.99   56.60   57.30   57.35   57.10   56.81   56.46   55.80   54.67   53.17   51.64   50.24   48.94   47.85   46.43   44.44   42.47   41.50   42.19   44.28   46.69   48.86   50.81   52.33   53.28   53.71   53.70   53.43   53.02   52.71   52.71
150.00  150.00  150.00  150.00  150.00  150.00  150.00  149.99  149.95  149.86  149.58  148.90  147.68  145.98  143.81  141.69  140.25  139.47  138.73  137.51  135.67  133.02  129.28  124.41  118.80  112.94  107.20  102.34   98.52   94.87   90.87   86.41   81.40   75.59   68.67   60.34   50.97   42.08    5.00    0.00    0.00    0.00    0.00   23.00    5.00    0.00    0.00   28.60   28.79   29.35    5.00    5.00    5.00    5.00   35.65   33.52   32.67   33.65   32.57   31.05   28.28   24.87    0.00    0.00    0.00    0.00    5.00    5.00   36.95   37.06   40.19   43.55   46.37   48.99   51.42   53.30   54.45   55.02   55.26   55.29   55.14   54.66   53.71   52.31   50.81   49.37   48.04   47.10   45.97   44.31   42.53   41.26   40.96   41.69   43.17   45.26   47.77   49.95   51.36   52.06   52.25   52.12   51.83   51.61   51.61
150.00  150.00  150.00  150.00  150.00  150.00  149.99  149.97  149.90  149.74  149.35  148.45  146.91  144.86  142.45  140.34  139.10  138.49  137.83  136.70  135.13  133.03  130.08  126.01  120.86  115.06  109.18  103.96   99.31   94.41   88.53   81.17   72.58   63.71   55.48   48.16   43.27   36.47    0.00    0.00    0.00    0.00    0.00    0.00    0.00    0.00    0.00    0.00    0.00    0.00    0.00    0.00    0.00    0.00    5.00   26.38   25.60    5.00    5.00    5.00    5.00    0.00    0.00    0.00    0.00    0.00    0.00    0.00    5.00   30.36   34.35   39.01   42.66   45.51   47.93   49.83   51.14   52.07   52.71   53.04   53.08   52.79   52.19   50.97   49.66   48.31   47.03   46.09   45.12   43.85   42.49   41.36   40.58   40.30   40.78   42.29   44.75   47.22   48.96   49.98   50.48   50.62   50.56   50.47   50.47
150.00  150.00  150.00  150.00  150.00  149.99  149.97  149.92  149.79  149.55  149.07  148.05  146.37  144.17  141.62  139.48  138.25  137.60  136.88  135.80  134.45  132.80  130.51  127.22  122.78  117.38  111.61  106.16  100.72   94.33   85.85   74.47   61.71   50.75   43.59   37.95    5.00    0.00    0.00    0.00    0.00    0.00    0.00    0.00    0.00    0.00    0.00    0.00    0.00    0.00    0.00    0.00    0.00    0.00    0.00    0.00    0.00    0.00    0.00    0.00    0.00    0.00    0.00    0.00    0.00    0.00    0.00    0.00    5.00   25.42   29.64   34.94   39.25   42.37   44.77   46.44   47.51   48.37   49.09   49.51   49.64   49.50   49.42   47.85   46.70   45.81   44.93   44.22   43.45   42.51   41.63   40.88   40.11   39.45   39.36   40.29   42.32   44.67   46.52   47.82   48.67   49.16   49.37   49.44   49.44
150.00  150.00  150.00  150.00  149.99  149.97  149.91  149.80  149.58  149.22  148.67  147.59  145.93  143.76  141.19  138.99  137.60  136.69  135.79  134.75  133.59  132.24  130.44  127.87  124.24  119.52  114.15  108.78  102.85   95.08   83.98   69.04   54.02   44.08    5.00    0.00    0.00    0.00    0.00    0.00    0.00    0.00    0.00    0.00    0.00    0.00    0.00    0.00    0.00    0.00    0.00    0.00    0.00    0.00    0.00    0.00    0.00    0.00    0.00    0.00    0.00    0.00    0.00    0.00    0.00    0.00    0.00    0.00    5.00   22.68   26.29   31.46   36.05   39.14   41.44   42.75   43.21   43.42   43.69   43.91   44.28   44.22   45.66   41.80   40.58   40.70   40.93   41.04   40.71   40.02   39.44   39.06   38.50   37.93   37.78   38.47   40.14   42.28   44.16   45.72   46.98   47.84   48.33   48.54   48.54
150.00  150.00  150.00  149.99  149.96  149.89  149.75  149.51  149.09  148.54  147.89  146.74  145.11  143.03  140.54  138.33  136.79  135.60  134.53  133.55  132.55  131.37  129.86  127.83  124.95  121.13  116.70  111.88  105.84   97.03   83.94   67.09   53.19    5.00    0.00    0.00    0.00    0.00    0.00    0.00    0.00    0.00    0.00    0.00    0.00    0.00    0.00    0.00    0.00    0.00    0.00    0.00    0.00    0.00    0.00    0.00    0.00    0.00    0.00    0.00    0.00    0.00    0.00    0.00    0.00    0.00    0.00    0.00    0.00    5.00   24.99   29.17   33.49   35.37   37.19   37.94   37.45   36.50   36.01   36.14   38.45   37.99    5.00   33.21   31.82   33.41   35.27   36.75   37.10   36.52   35.92   35.65   35.33   35.08   35.21   36.01   37.59   39.66   41.72   43.69   45.41   46.63   47.32   47.62   47.62
150.00  150.00  149.99  149.96  149.87  149.68  149.37  148.90  148.19  147.37  146.51  145.21  143.52  141.48  139.10  136.97  135.50  134.28  133.22  132.33  131.39  130.22  128.81  127.06  124.66  121.59  118.25  114.49  108.97   99.75   85.42   67.40   52.90    5.00    0.00    0.00    0.00    0.00    0.00    0.00    0.00    0.00    0.00    0.00    0.00    0.00    0.00    0.00    0.00    0.00    0.00    0.00    0.00    0.00    0.00    0.00    0.00    0.00    0.00    0.00    0.00    0.00    0.00    0.00    0.00    0.00    0.00    0.00    0.00    0.00    0.00    0.00    5.00   31.93   33.13   33.31   31.88   29.86   28.68   28.18    5.00    0.00    0.00    0.00   24.73   27.30   29.87   32.31   33.23   32.74   32.02   31.67   31.56   31.69   32.10   32.99   34.50   36.55   38.96   41.57   43.86   45.39   46.22   46.57   46.57
149.98  149.98  149.96  149.88  149.67  149.27  148.66  147.91  146.89  145.78  144.66  143.11  141.22  139.05  136.63  134.55  133.26  132.28  131.52  130.86  129.95  128.71  127.31  125.72  123.60  120.94  118.34  115.74  111.42  102.89   88.59   70.14   52.46   39.88    0.00    0.00    0.00    0.00    0.00    0.00    0.00    0.00    0.00    0.00    0.00    0.00    0.00    0.00    0.00    0.00    0.00    0.00    0.00    0.00    0.00    0.00    0.00    0.00    0.00    0.00    0.00    0.00    0.00    0.00    0.00    0.00    0.00    0.00    0.00    0.00    0.00    0.00    0.00    0.00    0.00    0.00    0.00    0.00    0.00    0.00    0.00    0.00    0.00    0.00    5.00    5.00   27.73   29.47   30.15   29.59   28.88   28.53   28.61   29.03   29.56   30.34   31.59   33.53   36.26   39.51   42.32   44.12   45.05   45.43   45.43
149.93  149.93  149.85  149.65  149.22  148.48  147.51  146.47  145.32  144.10  142.74  140.92  138.68  136.18  133.55  131.41  130.26  129.64  129.34  129.01  128.18  126.91  125.55  124.11  122.20  119.77  117.59  115.83  112.88  106.17   93.93   77.39   59.89   46.92    0.00    0.00    0.00    0.00    0.00    0.00    0.00    0.00    0.00    0.00    0.00    0.00    0.00    0.00    0.00    0.00    0.00    0.00    0.00    0.00    0.00    0.00    0.00    0.00    0.00    0.00    0.00    0.00    0.00    0.00    0.00    0.00    0.00    0.00    0.00    0.00    0.00    0.00    0.00    0.00    0.00    0.00    0.00    0.00    0.00    0.00    0.00    0.00    0.00    0.00    5.00    5.00   27.63   28.16   27.79   26.94   26.38   26.22   26.54   27.24   27.93   28.63   29.63   31.33   34.11   37.67   40.78   42.78   43.83   44.28   44.28
149.74  149.74  149.55  149.08  148.20  146.90  145.40  144.05  142.97  141.91  140.57  138.65  136.14  133.34  130.56  128.48  127.49  127.15  127.12  126.93  126.13  124.90  123.61  122.32  120.64  118.51  116.62  115.29  113.39  108.89  100.14   87.24   71.65   58.57    0.00    0.00    0.00    0.00    0.00    0.00    0.00    0.00    0.00    0.00    0.00    0.00    0.00    0.00    0.00    0.00    0.00    0.00    0.00    0.00    0.00    0.00    0.00    0.00    0.00    0.00    0.00    0.00    0.00    0.00    0.00    0.00    0.00    0.00    0.00    0.00    0.00    0.00    0.00    0.00    0.00    8.03    8.13    5.00    0.00    0.00    0.00    0.00    0.00    0.00   25.30   27.38   27.74   26.71   25.15   24.08   23.76   23.92   24.61   25.74   26.78   27.64   28.55   30.04   32.60   36.06   39.19   41.29   42.48   43.03   43.03
149.22  149.22  148.82  147.90  146.35  144.27  142.05  140.33  139.34  138.62  137.57  135.88  133.47  130.71  128.09  126.27  125.45  125.16  125.00  124.64  123.83  122.72  121.57  120.40  118.84  116.95  115.29  114.11  112.73  109.95  104.59   96.03   83.98   70.60   61.30   52.34   47.72    0.00    0.00    0.00    0.00    0.00    0.00    0.00    0.00    0.00    0.00    0.00    0.00    0.00    0.00    0.00    0.00    0.00    0.00    0.00    0.00    0.00    0.00    0.00    0.00    0.00    0.00    0.00    0.00    0.00    0.00    0.00    0.00    0.00    0.00    0.00    0.00    0.00    0.00    8.88    8.96    5.00    0.00    0.00    0.00    0.00    0.00   24.35   26.07   27.58   26.77   24.34   22.22   21.22   21.17   21.68   22.77   24.31   25.71   26.80   27.76   29.12   31.37   34.52   37.55   39.72   41.06   41.74   41.74
148.13  148.13  147.48  146.10  143.94  141.15  138.27  136.12  135.05  134.59  133.91  132.64  130.60  128.09  125.71  124.12  123.34  122.85  122.38  121.81  121.03  120.14  119.23  118.20  116.72  114.97  113.46  112.33  111.07  109.15  106.05  101.20   93.82   84.29   75.23   67.82   64.10   65.85   59.42   52.95    5.00    0.00    0.00    0.00    0.00    0.00    0.00    0.00    0.00    0.00    0.00    0.00    0.00    0.00    0.00    0.00    0.00    0.00    0.00    0.00    0.00    0.00    0.00    0.00    0.00    0.00    0.00    0.00    5.00    8.36    9.77   11.17   11.73    5.00    5.00   10.45   10.44    5.00    0.00    5.00    5.00   17.38   20.73   24.45   26.73   26.88   24.61   21.55   19.61   18.55   18.63   19.48   20.95   22.80   24.48   25.71   26.63   27.90   30.04   32.99   35.95   38.16   39.54   40.27   40.27
146.38  146.38  145.62  144.05  141.66  138.67  135.55  133.06  131.68  131.09  130.46  129.38  127.53  125.05  122.72  121.18  120.32  119.71  119.20  118.62  117.90  117.14  116.46  115.62  114.28  112.67  111.26  110.07  108.72  107.07  105.05  102.31   98.21   92.60   86.57   81.19   77.15   73.97   68.13   62.90   61.80   55.57   48.50   43.52    5.00    0.00    0.00    0.00    0.00    0.00    0.00    0.00    0.00    0.00    0.00    0.00    0.00    0.00    0.00    0.00    0.00    0.00    0.00    0.00    0.00    0.00    0.00    0.00    5.00    8.39    9.81   11.28   12.06   12.59   12.71   12.19   12.27   13.17   14.13   15.54   17.26   19.14   22.54   25.85   27.25   25.61   22.02   18.79   17.62   15.85   16.01   17.21   19.01   21.14   23.02   24.21   24.63   25.85   28.51   31.60   34.40   36.50   37.74   38.39   38.39
144.21  144.21  143.50  142.09  139.92  137.24  134.34  131.74  129.90  128.69  127.51  126.11  124.07  121.42  119.08  117.59  116.78  116.37  116.18  115.82  115.08  114.24  113.56  112.84  111.72  110.34  108.97  107.62  106.09  104.43  102.80  100.95   98.42   95.00   91.12   87.30   83.75   80.16   75.74   71.34   67.39   61.36   54.92   49.88   48.26   44.46   40.11   36.18   32.78   29.77   27.13   25.17    5.00    0.00    0.00    0.00    0.00    0.00    0.00    0.00    0.00    0.00    0.00    0.00    0.00    0.00    0.00    0.00    5.00    5.00    5.00    5.00   12.44   12.96   13.44   13.74   14.27   15.12   16.17   17.65   19.64   22.23   25.41   28.01   28.34   24.74   20.01   16.55    5.00   12.92   13.79   15.41   17.48   19.79   21.77   22.58   21.18   22.24   26.91   30.44   32.76   34.55   35.36   35.81   35.81
141.79  141.79  141.25  140.10  138.30  136.06  133.54  130.96  128.76  126.73  124.62  122.63  120.43  117.87  115.73  114.42  113.76  113.61  113.73  113.47  112.58  111.53  110.75  110.11  109.25  108.16  106.86  105.38  103.68  101.92  100.30   98.68   96.76   94.30   91.45   88.50   85.56   82.49   79.20   75.71   71.72   66.50   60.66   55.03   50.58   46.06   41.87   38.36   35.51   33.13   31.02   29.15   28.22   26.11    5.00    5.00    0.00    0.00    0.00    0.00    0.00    0.00    0.00    0.00    0.00    0.00    0.00    0.00    5.00    5.00    5.00    5.00   13.22   14.02   14.95   15.82   16.79   17.87   19.06   20.67   22.98   25.95   28.82   30.71   30.99    5.00    0.00    0.00    0.00    0.00    0.00    0.00    0.00    0.00    0.00    0.00   16.08   16.33    5.00    5.00   31.62   32.68   32.08   31.92   31.92
139.06  139.06  138.73  137.84  136.35  134.40  132.11  129.65  127.23  124.45  121.44  118.97  116.90  114.79  113.09  112.03  111.49  111.43  111.59  111.24  110.17  108.97  108.11  107.55  106.96  106.09  104.89  103.39  101.60   99.71   97.94   96.26   94.47   92.38   89.95   87.47   85.02   82.43   79.72   76.81   73.27   68.73   63.38   57.68   52.47   47.80   43.85   40.67   38.24   36.38   34.84   33.34   31.86   30.33   30.69   28.60   25.10   22.38    0.00    0.00    0.00    0.00    0.00    0.00    0.00    0.00    0.00    0.00    5.00    5.00   14.31   14.75   15.19   16.28   17.45   18.52   19.60   20.68   21.87   23.57   26.12   29.23   31.69   32.51   31.66    5.00    0.00    0.00    0.00    0.00    0.00    0.00    0.00    0.00    0.00    0.00    0.00    0.00    0.00    0.00    0.00    5.00   28.15   26.68   26.68
135.81  135.81  135.72  135.07  133.79  132.05  130.03  127.89  125.49  122.16  118.53  115.83  114.02  112.46  111.18  110.25  109.65  109.47  109.47  108.97  107.79  106.50  105.56  105.03  104.58  103.91  102.85  101.44   99.66   97.67   95.78   93.99   92.19   90.20   87.95   85.75   83.69   81.45   79.00   76.32   73.06   68.89   63.92   58.52   53.45   49.03   45.35   42.37   40.11   38.46   37.24   36.21   35.09   33.79   32.78   30.79   28.00   25.55   24.65   23.27   22.64   22.92   23.63   24.36   24.75   24.96   24.53   23.81    5.00    5.00   18.41   18.40   18.87   19.76   20.73   21.62   22.47   23.33   24.35   25.99   28.52   31.39   33.33   33.11   30.34   26.19    0.00    0.00    0.00    0.00    0.00    0.00    0.00    0.00    0.00    0.00    0.00    0.00    0.00    0.00    0.00    0.00    5.00   21.80   21.80
132.48  132.48  132.56  132.08  130.94  129.45  127.82  126.12  123.88  120.35  116.51  113.79  112.17  110.97  109.86  108.83  107.97  107.49  107.21  106.54  105.29  103.92  102.91  102.31  101.83  101.26  100.40   99.16   97.49   95.55   93.73   92.00   90.24   88.32   86.18   84.13   82.29   80.36   78.13   75.55   72.36   68.28   63.49   58.42   53.71   49.63   46.19   43.40   41.27   39.70   38.60   37.85   37.11   36.04   34.74   33.03   30.94   28.86   27.25   26.01   25.63   25.96   26.53   27.16   27.79   28.53   29.01   29.47   31.35   29.47   24.96   23.47   23.29   23.68   24.24   24.77   25.26   25.78   26.54   27.98   30.20   32.57   34.15   33.78   30.86   26.43   22.69    0.00    0.00    0.00    0.00    0.00    0.00    0.00    0.00    0.00    0.00    0.00    0.00    0.00    0.00    0.00    0.00    5.00    5.00
129.36  129.36  129.55  129.29  128.37  127.13  125.77  124.32  122.17  118.78  115.14  112.46  110.85  109.76  108.65  107.44  106.25  105.37  104.74  103.90  102.64  101.36  100.38   99.59   98.82   98.12   97.32   96.26   94.80   93.11   91.52   90.02   88.45   86.70   84.73   82.83   81.15   79.49   77.54   75.02   71.66   67.36   62.51   57.66   53.32   49.57   46.40   43.84   41.87   40.37   39.31   38.68   38.16   37.30   35.99   34.44   32.78   31.10   29.67   28.76   28.62   29.00   29.47   29.97   30.69   31.77   32.80   33.31   33.12   31.21   28.72   27.40   27.01   27.11   27.39   27.65   27.89   28.17   28.73   29.88   31.59   33.32   34.56   34.49   32.43   28.80   24.68   21.29   18.40    5.00    0.00    0.00    0.00    0.00    0.00    0.00    0.00    0.00    0.00    0.00    0.00    0.00    0.00    0.00    0.00
126.00  126.00  126.31  126.39  125.86  124.86  123.55  122.07  119.99  117.01  113.81  111.25  109.59  108.50  107.38  106.02  104.58  103.37  102.43  101.47  100.33   99.30   98.43   97.44   96.27   95.25   94.34   93.31   91.99   90.52   89.17   87.90   86.57   85.03   83.33   81.65   80.13   78.69   76.96   74.39   70.65   65.95   60.98   56.30   52.31   48.93   46.08   43.81   42.05   40.70   39.76   39.26   38.83   37.99   36.61   35.04   33.50   32.10   30.97   30.28   30.21   30.56   30.99   31.44   32.19   33.35   34.47   34.85   34.12   32.43   30.79   29.83   29.51   29.55   29.75   29.95   30.16   30.45   30.98   31.91   33.10   34.16   34.92   35.02   33.92   31.52   28.10   24.33   20.81   18.22   15.65    0.00    0.00    0.00    0.00    0.00    0.00    0.00    0.00    0.00    0.00    0.00    0.00    0.00    0.00
121.70  121.70  122.18  122.71  122.69  121.99  120.74  119.24  117.38  115.00  112.35  110.00  108.33  107.19  106.01  104.56  103.01  101.62  100.48   99.47   98.54   97.84   97.15   96.14   94.77   93.45   92.32   91.15   89.75   88.28   86.96   85.76   84.54   83.19   81.72   80.25   78.83   77.46   75.73   72.94   68.77   63.78   58.72   54.15   50.49   47.58   45.20   43.32   41.84   40.72   40.04   39.66   39.17   38.16   36.58   34.87   33.36   32.19   31.36   30.83   30.74   31.01   31.46   32.05   32.95   34.12   35.12   35.31   34.49   33.09   31.89   31.20   30.98   31.06   31.31   31.59   31.91   32.31   32.87   33.65   34.48   35.07   35.45   35.52   35.00   33.63   31.23   28.10   24.90   21.82   18.84   17.51    0.00    0.00    0.00    0.00    0.00    0.00    0.00    0.00    0.00    0.00    0.00    0.00    0.00
116.54  116.54  117.21  118.23  118.81  118.55  117.55  116.25  114.80  113.01  110.87  108.75  107.08  105.84  104.58  103.11  101.54   99.97   98.45   97.19   96.39   95.99   95.62   94.89   93.69   92.32   91.07   89.75   88.22   86.63   85.22   83.97   82.71   81.37   79.96   78.53   77.08   75.60   73.62   70.41   65.85   60.67   55.44   50.72   47.28   44.98   43.32   41.99   40.89   40.09   39.64   39.28   38.58   37.35   35.66   33.90   32.47   31.56   31.02   30.64   30.53   30.73   31.23   31.99   33.04   34.21   35.08   35.19   34.48   33.40   32.52   32.03   31.90   31.99   32.27   32.63   33.05   33.50   34.04   34.70   35.36   35.80   36.08   36.23   36.05   35.28   33.69   31.44   29.09   26.60   23.74   21.12   19.86    0.00    0.00    0.00    0.00    0.00    0.00    0.00    0.00    0.00    0.00    0.00    0.00
111.51  111.51  112.27  113.65  114.73  114.90  114.21  113.20  112.20  110.92  109.20  107.32  105.66  104.29  102.97  101.52   99.83   97.67   95.06   93.01   92.21   92.32   92.72   92.78   92.12   90.98   89.76   88.43   86.91   85.33   83.98   82.80   81.47   79.93   78.29   76.63   74.90   73.13   70.71   66.89   61.83   56.23   50.48   45.25   41.90   40.33   39.66   39.16   38.65   38.23   37.93   37.53   36.74   35.50   33.93   32.37   31.18   30.53   30.17   29.87   29.77   29.91   30.33   31.08   32.13   33.28   34.16   34.40   33.97   33.26   32.72   32.45   32.40   32.51   32.79   33.18   33.64   34.07   34.51   35.07   35.68   36.19   36.66   37.03   37.08   36.65   35.62   34.15   32.65   31.02   28.86   26.29   24.18    5.00    0.00    0.00    0.00    0.00    0.00    0.00    0.00    0.00    0.00    0.00    0.00
107.20  107.20  107.94  109.49  110.86  111.31  110.84  110.09  109.42  108.47  107.02  105.38  103.80  102.38  101.06   99.60   97.44   93.90   89.18   85.73   85.03   86.11   87.83   89.27   89.59   88.96   87.95   86.74   85.39   84.05   82.99   81.99   80.61   78.79   76.73   74.55   72.30   70.06   67.04   62.52   56.70   50.24   43.77   38.08   34.61   33.52   33.84   34.42   34.77   34.95   34.96   34.73   34.14   33.19   31.99   30.82   29.91   29.36   28.97   28.65   28.56   28.71   29.08   29.74   30.72   31.82   32.73   33.13   32.99   32.64   32.41   32.37   32.47   32.63   32.91   33.30   33.74   34.14   34.51   34.99   35.55   36.17   36.91   37.61   37.91   37.73   37.15   36.29   35.42   34.44   32.93   30.76   28.18   25.70   21.25   17.41    0.00    0.00    0.00    0.00    0.00    0.00    0.00    0.00    0.00
103.23  103.23  103.83  105.48  107.09  107.74  107.42  106.83  106.29  105.47  104.21  102.83  101.48  100.21   99.01   97.52   94.77   89.73   83.03   78.39   77.79   79.58   82.23   84.81   86.17   86.22   85.59   84.65   83.63   82.70   81.96   81.03   79.46   77.25   74.70   71.92   69.10   66.40   62.88   57.79   51.15   43.74   36.90   31.35   27.60   26.34   27.14   28.50   29.44   30.29   30.91   31.19   31.18   30.75   30.00   29.22   28.46   27.79   27.24   26.91   26.98   27.37   27.99   28.84   29.85   30.85   31.60   31.92   31.87   31.72   31.73   31.93   32.21   32.48   32.80   33.17   33.59   34.00   34.36   34.76   35.21   35.82   36.75   37.75   38.33   38.42   38.14   37.66   37.17   36.58   35.52   33.81   31.32   27.99   23.39   18.50   15.00    0.00    0.00    0.00    0.00    0.00    0.00    0.00    0.00
98.85   98.85   99.26  101.15  103.18  104.15  104.05  103.59  103.07  102.31  101.24  100.17   99.14   98.13   97.04   95.37   92.10   86.50   80.05   75.69   74.66   75.74   77.94   80.57   82.40   83.01   82.82   82.20   81.54   81.02   80.40   79.15   77.03   74.27   71.32   68.18   65.07   62.13   58.38   53.05   45.95   38.17   31.69   26.99   23.01   21.44   22.31   23.74   23.76   24.58   25.73   26.78   27.89   28.02   27.25   26.63   26.02   25.38   24.84   24.64   24.98   25.78   26.88   28.16   29.40   30.42   31.02   31.13   30.92   30.78   30.92   31.29   31.73   32.09   32.40   32.72   33.14   33.65   34.13   34.55   34.92   35.45   36.37   37.51   38.34   38.67   38.63   38.36   38.03   37.63   36.85   35.52   33.43   30.38   26.12   21.07   17.09    0.00    0.00    0.00    0.00    0.00    0.00    0.00    0.00
94.39   94.39   94.51   96.64   99.18  100.61  100.88  100.64  100.18   99.48   98.59   97.81   97.13   96.36   95.23   92.91   88.33   81.88   76.69   73.89   72.98   73.29   74.63   76.67   78.41   79.30   79.48   79.21   78.85   78.43   77.38   75.11   72.07   68.78   65.81   62.98   60.18   57.35   53.69   48.50   41.51   34.17   29.13    5.00    0.00    0.00    5.00    5.00   19.26   18.75   19.78   21.42   24.84   25.37   23.19   22.51   22.36   22.11   21.88   21.84   22.32   23.43   25.01   26.76   28.36   29.55   30.13   30.08   29.70   29.53   29.80   30.31   30.75   31.03   31.20   31.39   31.88   32.68   33.55   34.25   34.73   35.21   36.02   37.13   38.09   38.63   38.78   38.64   38.35   37.99   37.36   36.29   34.58   31.99   28.34   23.85   20.19    0.00    0.00    0.00    0.00    0.00    0.00    0.00    0.00
91.25   91.25   91.02   92.94   95.55   97.26   97.90   97.95   97.62   97.01   96.27   95.82   95.52   94.96   93.68   90.48   84.18   76.44   72.05   70.83   70.69   70.88   71.60   72.89   74.15   74.94   75.27   75.28   75.05   74.19   71.98   68.13   64.35   61.15   58.79   56.83   54.82   52.52   49.37   44.87   38.70   32.18   27.66    5.00    0.00    0.00    0.00    0.00    5.00   14.15   14.81   15.54    5.00    5.00   18.22   17.52   17.99   18.23   18.56   18.64   18.89   20.08   22.07   24.31   26.27   27.64   28.23   28.08   27.56   27.43   27.88   28.48   28.74   28.76   28.67   28.74   29.36   30.64   32.19   33.50   34.31   34.83   35.53   36.59   37.66   38.38   38.69   38.66   38.37   38.00   37.42   36.46   34.93   32.66   29.58   25.98   23.11    5.00    0.00    0.00    0.00    0.00    0.00    0.00    0.00
89.00   89.00   88.54   90.03   92.36   94.04   94.86   95.13   95.01   94.60   94.17   94.16   94.31   93.96   92.66   89.34   82.98   75.33   70.92   69.53   69.10   68.80   68.76   69.16   69.67   69.98   70.15   70.22   69.78   67.91   64.26   58.83   55.57   53.88   52.85   51.83   50.58   48.94   46.61   43.21   38.46   33.10   28.84    5.00    0.00    0.00    0.00    0.00    0.00    0.00    0.00    0.00    0.00    0.00    0.00   13.91   14.60   14.40   15.83   15.99   15.34   16.33   18.52   20.97   23.08   24.45   24.96   24.86   24.22   24.13   24.81   25.43   25.19   24.91   24.67   24.73   25.59   27.37   29.73   31.90   33.24   33.81   34.41   35.58   36.93   37.90   38.38   38.45   38.20   37.81   37.20   36.22   34.67   32.43   29.59   26.53   24.24    5.00    0.00    0.00    0.00    0.00    0.00    0.00    0.00
87.89   87.89   87.38   88.18   89.76   91.01   91.74   92.16   92.31   92.25   92.23   92.65   93.15   92.98   91.85   89.09   83.86   77.31   72.71   70.22   68.58   67.19   66.15   65.59   65.26   64.90   64.64   64.47   63.43   60.51   56.47   48.48   47.00   47.88   48.67   48.64   48.01   46.95   45.34   43.00   39.71   35.49   30.66   25.85   21.80    0.00    0.00    0.00    0.00    0.00    0.00    0.00    0.00    0.00    0.00    5.00    5.00   10.83    5.00    5.00   12.47   13.17   15.12   17.20   19.16   20.21   20.57   21.47   20.89   20.84   21.73   22.23   20.52   20.01   19.85   20.12   21.27   23.31   26.29   29.34   31.36   32.07   32.64   34.08   35.93   37.30   37.97   38.12   37.92   37.47   36.76   35.69   34.08   31.79   28.99   26.11   24.04    5.00    0.00    0.00    0.00    0.00    0.00    0.00    0.00
87.25   87.25   86.72   86.86   87.59   88.30   88.84   89.34   89.76   90.07   90.37   90.96   91.55   91.45   90.56   88.53   84.70   79.58   75.01   71.33   68.09   65.34   63.42   62.12   61.10   60.23   59.68   59.26   57.86   55.13    5.00   39.17   40.95   43.81   45.88   46.70   46.64   46.04   44.93   43.31   41.15   38.23   34.37   29.80   25.81    5.00    0.00    0.00    0.00    0.00    0.00    0.00    0.00    0.00    0.00    0.00    0.00    0.00    0.00    0.00    5.00   11.43   12.75   13.70   15.92   16.65   16.56    5.00    0.00    0.00    0.00    5.00   15.93   15.94   16.09   16.63   17.91   19.39   22.48   26.19   29.06   30.35   31.19   32.90   35.11   36.79   37.60   37.77   37.54   36.97   36.10   34.95   33.35   31.13   28.43   25.66   23.64    5.00    0.00    0.00    0.00    0.00    0.00    0.00    0.00
86.63   86.63   85.99   85.63   85.72   86.04   86.44   86.93   87.52   88.11   88.58   89.09   89.43   89.09   88.30   86.96   84.38   80.46   75.88   70.78   65.48   61.44   59.54   58.45   57.40   56.50   55.96   55.37   53.47   49.14   41.98   38.51   39.41   41.91   44.09   45.32   45.74   45.56   44.80   43.66   42.27   40.40   37.72   33.91   29.25   24.58   19.73    0.00    0.00    0.00    0.00    0.00    0.00    0.00    0.00    0.00    0.00    0.00    0.00    0.00    0.00    5.00    5.00   10.67    5.00    5.00    5.00    0.00    0.00    0.00    0.00    0.00    0.00    5.00    5.00    5.00    5.00   16.41   19.09   23.09   26.86   29.29   30.85   32.70   34.85   36.53   37.30   37.37   36.99   36.23   35.15   33.93   32.42   30.42   27.97   25.29   23.08    5.00    0.00    0.00    0.00    0.00    0.00    0.00    0.00
85.75   85.75   84.89   84.23   84.05   84.22   84.57   84.98   85.60   86.28   86.71   86.81   86.34   85.03   83.79   83.05   81.59   78.42   73.34   66.30   58.57   53.80   53.53   54.22   54.19   53.80   53.45   52.84   51.16   47.81   43.42   40.64   40.42   41.60   43.05   44.22   44.92   45.11   44.71   43.96   43.12   41.93   40.02   36.90   32.24   26.46   21.18    0.00    0.00    0.00    0.00    0.00    0.00    0.00    0.00    0.00    0.00    0.00    0.00    0.00    0.00    0.00    0.00    0.00    0.00    0.00    0.00    0.00    0.00    0.00    0.00    0.00    0.00    0.00    5.00    5.00    5.00   14.31   16.76   20.71   25.07   28.63   31.08   33.07   34.96   36.39   36.96   36.75   36.09   35.06   33.75   32.37   30.88   29.07   26.87   24.20   21.18   18.15    0.00    0.00    0.00    0.00    0.00    0.00    0.00
83.22   83.22   82.05   81.46   81.59   82.03   82.51   82.91   83.47   83.93   83.84   82.81   80.43   77.08   74.89   74.99   74.94   72.39   66.52   57.55   48.14   43.65   46.15   49.56   51.15   51.54   51.46   50.95   49.74   47.69   45.20   43.29   42.41   42.32   42.75   43.41   44.13   44.65   44.67   44.36   43.94   43.18   41.69   38.95   34.46   28.53   22.19    0.00    0.00    0.00    0.00    0.00    0.00    0.00    0.00    0.00    0.00    0.00    0.00    0.00    0.00    0.00    0.00    0.00    0.00    0.00    0.00    0.00    0.00    0.00    0.00    0.00    0.00    0.00    5.00    5.00    5.00   13.79   16.12   19.81   24.24   28.37   31.40   33.51   35.13   36.24   36.51   35.94   34.94   33.65   32.09   30.47   28.78   26.94   24.93   22.55   19.76   17.28    5.00    0.00    0.00    0.00    0.00    0.00    0.00
76.75   76.75   75.12   75.12   76.56   77.94   79.03   79.68   80.01   79.71   78.28   75.16   70.03   64.52   61.60   62.41   63.71   61.75   55.69   46.77   39.35   35.72   40.49   45.73   48.40   49.33   49.46   49.12   48.40   47.40   46.34   45.40   44.56   43.81   43.31   43.21   43.59   44.23   44.63   44.76   44.73   44.32   43.15   40.76   36.83   32.59    5.00    0.00    0.00    0.00    0.00    0.00    0.00    0.00    0.00    0.00    0.00    0.00    0.00    0.00    0.00    0.00    0.00    0.00    0.00    0.00    0.00    0.00    0.00    0.00    0.00    0.00    0.00    0.00    5.00    5.00   12.79   14.42   17.11   20.62   24.78   28.83   31.89   33.89   35.24   36.02   36.00   35.16   33.92   32.47   30.78   28.96   26.99   24.91   22.87   20.70   18.12   15.25   12.11    0.00    0.00    0.00    0.00    0.00    0.00
65.99   65.99   63.66   64.46   68.44   71.15   73.39   74.53   74.25   72.30   68.73   63.55   57.43   53.05   50.16   48.56   49.41   47.51   42.49   36.50    5.00   31.62   37.64   43.22   46.13   47.25   47.56   47.52   47.32   47.14   47.08   46.95   46.48   45.65   44.70   43.97   43.77   44.12   44.55   44.90   45.19   45.14   44.39   42.48   38.94   34.34   30.80    5.00    0.00    0.00    0.00    0.00    0.00    0.00    0.00    0.00    0.00    0.00    0.00    0.00    0.00    0.00    0.00    0.00    0.00    0.00    0.00    0.00    0.00    0.00    0.00    0.00    0.00    0.00    9.39   11.45   13.74   16.27   19.20   22.56   26.32   29.90   32.57   34.25   35.25   35.68   35.41   34.40   33.03   31.53   29.84   28.02   25.98   23.72   21.51   19.30   16.94   14.94    5.00    0.00    0.00    0.00    0.00    0.00    0.00
54.32   54.32   51.12   51.73   60.17   61.99   65.05   66.66   65.49   61.66   56.47   51.17   48.66    0.00    0.00   35.93   35.81   33.84   31.00   25.19   23.06   29.03   36.13   41.44   44.24   45.50   46.09   46.50   46.93   47.44   48.02   48.40   48.27   47.59   46.59   45.58   44.85   44.58   44.61   44.87   45.29   45.55   45.29   44.07   41.42   37.42   33.67    5.00    0.00    0.00    0.00    0.00    0.00    0.00    0.00    0.00    0.00    0.00    0.00    0.00    0.00    0.00    0.00    0.00    0.00    0.00    0.00    0.00    0.00    0.00    0.00    0.00    0.00    0.00    9.81   12.62   15.49   18.39   21.39   24.61   27.98   31.01   33.16   34.39   34.99   35.06   34.55   33.39   31.93   30.37   28.72   27.01   25.11   22.90   20.54   18.06   15.57   13.72    5.00    0.00    0.00    0.00    0.00    0.00    0.00
44.20   44.20   40.80   38.11    5.00   50.65   54.22   56.38   54.77   50.39   46.51   42.25    5.00    0.00    0.00   26.88   26.52   25.45    5.00   19.85   22.56   28.71   35.19   39.85   42.51   43.94   44.85   45.72   46.74   47.81   48.80   49.54   49.74   49.36   48.56   47.53   46.49   45.67   45.18   45.10   45.38   45.73   45.77   45.16   43.46   40.32   36.07   32.58    5.00    0.00    0.00    0.00    0.00    0.00    0.00    0.00    0.00    0.00    0.00    0.00    5.00    5.00    5.00    0.00    0.00    0.00    0.00    0.00    0.00    0.00    0.00    0.00    0.00    0.00    5.00   14.60   17.01   19.81   22.77   25.86   28.94   31.54   33.25   34.12   34.38   34.13   33.36   31.99   30.38   28.73   27.08   25.50   23.85   21.84   19.46   16.78   14.11   12.23    5.00    0.00    0.00    0.00    0.00    0.00    0.00
37.83   37.83    5.00    0.00    5.00   38.27   42.74   45.57   44.18   41.09    5.00    0.00    0.00    0.00    5.00   20.35   20.56   20.06   18.41   19.27   22.80   28.27   33.78   37.95   40.69   42.42   43.65   44.80   46.01   47.22   48.33   49.29   49.88   50.01   49.68   48.92   47.89   46.88   46.13   45.75   45.72   45.87   45.94   45.68   44.72   42.56   38.72   33.72   29.29    5.00    5.00    5.00    5.00    5.00    5.00    5.00    5.00    5.00    5.00    5.00    5.00    5.65    5.00    5.00    0.00    0.00    0.00    0.00    0.00    0.00    0.00    0.00    0.00    0.00    0.00    5.00   17.58   19.97   22.88   25.92   28.85   31.20   32.66   33.32   33.38   32.91   31.88   30.22   28.35   26.57   24.95   23.58   22.23   20.48   18.19   15.49   12.93   11.20    5.00    0.00    0.00    0.00    0.00    0.00    0.00
31.49   31.49    0.00    0.00    0.00   29.91   34.76   37.70   36.14   33.27    0.00    0.00    0.00    0.00   13.22   15.74   17.34   18.07   18.20   19.32   22.34   26.76   31.43   35.42   38.50   40.71   42.35   43.75   45.01   46.10   47.01   47.83   48.48   48.90   49.04   48.76   48.10   47.30   46.64   46.23   46.04   46.00   45.96   45.78   45.27   44.00   41.24   36.62   30.92   25.41   20.37   16.61   13.60   10.99    8.99    7.84    5.00    5.00    5.00    6.25    6.18    5.96    5.00    5.00    0.00    0.00    0.00    0.00    0.00    0.00    0.00    0.00    0.00    0.00    0.00   11.52   15.20   18.45   21.56   24.65   27.63   29.99   31.41   32.04   32.07   31.54   30.34   28.37   26.17   24.27   22.79   21.70   20.64   19.10   16.88   14.35   12.44    5.00    0.00    0.00    0.00    0.00    0.00    0.00    0.00
0.00    0.00    0.00    0.00    0.00    0.00    5.00    5.00    0.00    0.00    0.00    0.00    0.00    0.00   13.03   14.25   16.09   17.37   18.02   19.04   21.22   24.55   28.49   32.48   36.06   38.81   40.88   42.55   43.91   44.91   45.59   46.14   46.55   46.88   47.19   47.34   47.19   46.83   46.45   46.18   46.04   45.97   45.84   45.62   45.29   44.62   42.96   39.73   35.02   29.72   24.64   20.33   16.50   13.08   10.39    8.60    7.59    7.00    6.83    6.69    6.56    6.29    6.06    5.00    0.00    0.00    0.00    0.00    0.00    0.00    0.00    0.00    0.00    0.00    0.00    5.00   14.13   16.38   19.03   22.02   25.11   27.75   29.50   30.42   30.66   30.21   28.93   26.74   24.32   22.43   21.17   20.29   19.37   17.92   15.75   13.34   11.68    5.00    0.00    0.00    0.00    0.00    0.00    0.00    0.00
0.00    0.00    0.00    0.00    0.00    0.00    0.00    0.00    0.00    0.00    0.00    0.00    0.00    0.00    0.00   13.59   15.49   17.01   17.82   18.63   20.12   22.57   25.86   29.80   33.75   36.98   39.43   41.31   42.72   43.64   44.17   44.52   44.67   44.72   44.96   45.36   45.69   45.82   45.78   45.68   45.61   45.61   45.47   45.21   44.92   44.50   43.56   41.63   38.49   34.44   29.97   25.46   20.86   16.46   12.81   10.20    8.62    7.84    7.60    7.50    7.27    6.87    6.49    5.00    0.00    0.00    0.00    0.00    0.00    0.00    0.00    0.00    0.00    0.00    0.00    0.00   12.47   14.25   15.81   18.30   21.21   24.27   26.76   28.42   29.16   28.93   27.67   25.43   23.01   21.24   20.11   19.26   18.29   16.85   14.81   12.59   11.08    5.00    0.00    0.00    0.00    0.00    0.00    0.00    0.00
0.00    0.00    0.00    0.00    0.00    0.00    0.00    0.00    0.00    0.00    5.00    5.00    5.00    0.00    0.00   12.89   15.27   16.91   17.77   18.45   19.52   21.39   24.22   27.93   31.90   35.36   38.11   40.16   41.53   42.31   42.69   42.95   42.97   42.82   42.88   43.33   43.94   44.46   44.78   44.87   44.85   44.84   44.71   44.44   44.16   43.83   43.24   42.16   40.28   37.51   34.01   29.93   25.27   20.41   16.02   12.63   10.46    9.37    8.95    8.71    8.32    7.73    7.22    5.00    0.00    0.00    0.00    0.00    0.00    0.00    0.00    0.00    0.00    0.00    0.00    0.00    0.00    5.00   13.37   15.05   16.82   19.95   23.32   26.04   27.52   27.63   26.48   24.34   22.08   20.42   19.28   18.28   17.15   15.70   13.84   11.91   10.60    5.00    0.00    0.00    0.00    0.00    0.00    0.00    0.00
0.00    0.00    0.00    0.00    0.00    0.00    0.00    0.00    0.00    0.00    5.00    5.00    9.92    5.00    5.00    5.00   16.41   17.40   18.15   18.76   19.63   21.15   23.58   26.81   30.31   33.62   36.59   38.72   40.04   40.65   40.96   41.38   41.63   41.51   41.37   41.63   42.22   42.88   43.47   43.82   43.87   43.81   43.64   43.37   43.09   42.79   42.39   41.81   40.73   38.90   36.31   33.01   28.94   24.30   19.67   15.79   13.08   11.54   10.79   10.28    9.64    8.82    8.09    5.00    5.00    0.00    0.00    0.00    0.00    0.00    0.00    0.00    0.00    0.00    0.00    0.00    0.00    5.00    5.00    5.00   13.17   16.00   20.04   23.70   25.87   26.27   25.24   23.28   21.24   19.66   18.39   17.17   15.83   14.31   12.62   11.07   10.12    5.00    0.00    0.00    0.00    0.00    0.00    0.00    0.00
0.00    0.00    0.00    0.00    0.00    0.00    0.00    0.00    0.00    0.00    5.00    9.78    9.78    5.00    5.00   15.22   16.72   18.11   19.04   19.71   20.46   21.64   23.46   25.74   28.12   30.80   34.08   36.09   37.40   38.08   38.63   39.59   40.48   40.74   40.58   40.57   40.91   41.41   42.02   42.55   42.75   42.70   42.51   42.24   41.92   41.58   41.23   40.88   40.27   39.10   37.29   34.79   31.49   27.43   23.06   19.07   16.02   14.05   12.91   12.06   11.11    9.95    8.76    8.00    5.00    0.00    0.00    0.00    0.00    0.00    0.00    0.00    0.00    0.00    0.00    0.00    0.00    5.00    7.17    7.79   10.09   13.32   17.83   21.94   24.34   24.82   23.90   22.16   20.33   18.76   17.34   15.89   14.35   12.75   11.30   10.48    5.00    5.00    0.00    0.00    0.00    0.00    0.00    0.00    0.00
0.00    0.00    0.00    0.00    0.00    0.00    0.00    0.00    0.00    0.00    5.00   10.15    5.00    5.00   13.88   15.68   17.65   19.14   20.15   20.86   21.46   22.16   23.08   23.89   24.43   25.96   30.77   31.77   32.99   34.28   35.67   37.52   39.25   40.15   40.25   40.14   40.20   40.30   40.63   41.14   41.47   41.52   41.38   41.14   40.81   40.40   40.02   39.71   39.34   38.62   37.40   35.56   32.93   29.48   25.54   21.74   18.58   16.33   14.85   13.69   12.47   11.03    9.54    8.51    5.00    0.00    0.00    0.00    0.00    0.00    0.00    0.00    0.00    0.00    0.00    0.00    0.00    0.00    7.03    7.64    9.34   12.58   17.05   20.85   22.82   23.07   22.25   20.81   19.20   17.61   16.04   14.45   12.81   11.24   10.14    5.00    5.00    5.00    0.00    0.00    0.00    0.00    0.00    0.00    0.00
0.00    0.00    0.00    0.00    0.00    0.00    0.00    0.00    0.00    0.00    5.00   10.04    5.00   10.40   13.56   16.44   18.64   20.04   20.96   21.53   21.82   21.95   22.01   21.35   19.83   18.82    5.00   27.21   27.47   29.59   32.23   35.10   37.68   39.37   40.04   40.12   40.00   39.65   39.54   39.80   40.11   40.26   40.21   40.02   39.70   39.27   38.87   38.55   38.29   37.83   37.00   35.62   33.45   30.46   26.95   23.44   20.35   17.96   16.24   14.85   13.44   11.85   10.25    9.10    5.00    0.00    0.00    0.00    0.00    0.00    0.00    0.00    0.00    0.00    0.00    0.00    0.00    0.00    6.92    7.83    9.81   13.21   17.20   19.98   20.89   20.60   19.89   18.86   17.52   15.98   14.36   12.76   11.20    9.87    9.11    5.00    5.00    0.00    0.00    0.00    0.00    0.00    0.00    0.00    0.00
0.00    0.00    0.00    0.00    0.00    0.00    0.00    0.00    0.00    0.00    5.00    5.00    5.00    5.00   14.83   17.09   18.97   20.16   20.91   21.30   21.30   21.04   20.57   19.13   16.80   15.03    5.00    5.00   22.61   25.22   28.77   32.36   35.59   38.06   39.53   40.11   40.05   39.46   38.95   38.81   38.89   39.00   38.97   38.79   38.46   38.04   37.66   37.38   37.17   36.85   36.22   35.12   33.29   30.68   27.54   24.28   21.29   18.81   16.92   15.34   13.80   12.17   10.55    9.33    5.00    5.00    0.00    0.00    0.00    0.00    0.00    0.00    0.00    0.00    0.00    0.00    0.00    0.00    5.00    8.45   10.89   14.26   17.47   18.91   18.48   17.44   16.71   16.03   15.01   13.68   12.25   10.95    9.76    9.08    5.00    5.00    5.00    0.00    0.00    0.00    0.00    0.00    0.00    0.00    0.00
0.00    0.00    0.00    0.00    0.00    0.00    0.00    0.00    0.00    0.00    0.00    0.00    5.00    5.00    5.00   16.94   18.13   19.07   19.78   20.27   20.41   20.10   19.30   17.65   15.92    5.00    5.00    5.00   19.03   22.01   25.91   29.76   33.28   36.24   38.39   39.63   40.02   39.63   39.00   38.48   38.11   37.91   37.73   37.43   37.03   36.60   36.27   36.05   35.89   35.62   35.09   34.20   32.71   30.48   27.66   24.56   21.55   18.92   16.83   15.05   13.36   11.72   10.13    8.62    7.28    5.00    0.00    0.00    0.00    0.00    0.00    0.00    0.00    0.00    0.00    0.00    0.00    0.00    5.00    5.00   12.45   15.09   17.37   17.61   16.06   14.29   13.30   12.69   11.91   10.95    9.97    9.47    8.79    5.00    5.00    5.00    0.00    0.00    0.00    0.00    0.00    0.00    0.00    0.00    0.00
0.00    0.00    0.00    0.00    0.00    0.00    0.00    0.00    0.00    0.00    0.00    0.00    5.00    5.00   10.91   13.98   15.74   16.81   17.75   18.64   19.23   19.12   18.14   16.74    5.00    5.00    5.00   13.35   16.52   20.20   24.08   27.76   31.17   34.18   36.61   38.35   39.43   39.79   39.59   39.00   38.19   37.43   36.79   36.17   35.58   35.07   34.73   34.55   34.41   34.15   33.71   33.04   31.91   30.07   27.50   24.41   21.21   18.31   15.92   13.87   12.10   10.55    9.18    8.01    7.10    5.00    0.00    0.00    0.00    0.00    0.00    0.00    0.00    0.00    0.00    0.00    0.00    0.00    5.00   10.22   12.35   15.18   16.89   16.45   14.34   12.13   10.76    9.94    9.29    8.95    8.38    5.00    5.00    5.00    0.00    0.00    0.00    0.00    0.00    0.00    0.00    0.00    0.00    0.00    0.00
0.00    0.00    0.00    0.00    0.00    0.00    0.00    0.00    0.00    0.00    0.00    0.00    0.00    5.00    5.00   12.89   13.81   14.72   15.83   16.89   17.96   18.17   17.17   15.78    5.00    5.00    5.00   14.51   16.83   20.00   23.31   26.49   29.48   32.16   34.41   36.28   37.91   39.22   39.96   39.98   39.17   37.88   36.55   35.39   34.47   33.80   33.32   33.04   32.84   32.63   32.29   31.80   30.97   29.47   27.10   23.94   20.42   17.08   14.32   12.15   10.68    9.31    8.01    7.43    5.00    0.00    0.00    0.00    0.00    0.00    0.00    0.00    0.00    0.00    0.00    0.00    0.00    0.00    5.00   10.37   12.42   14.96   16.27   15.61   13.50   11.18    9.50    8.42    7.87    5.00    5.00    5.00    5.00    5.00    0.00    0.00    0.00    0.00    0.00    0.00    0.00    0.00    0.00    0.00    0.00
0.00    0.00    0.00    0.00    0.00    0.00    0.00    0.00    0.00    0.00    0.00    0.00    0.00    5.00    5.00    5.00    5.00    5.00    5.00   15.84   17.05   17.71   17.04   15.79    5.00    5.00   15.62   16.35   18.31   20.72   23.24   25.77   28.23   30.45   32.31   33.98   35.78   37.70   39.40   40.40   40.22   38.91   37.05   35.27   33.88   32.87   32.14   31.64   31.37   31.22   31.00   30.63   29.97   28.70   26.53   23.35   19.53   15.76   12.79   11.01    5.00    5.00    6.86    6.74    5.00    0.00    0.00    0.00    0.00    0.00    0.00    0.00    0.00    0.00    0.00    0.00    0.00    0.00    8.05   10.31   12.49   14.60   15.56   14.90   13.00   10.84    9.03    7.98    5.00    5.00    5.00    5.00    5.00    0.00    0.00    0.00    0.00    0.00    0.00    0.00    0.00    0.00    0.00    0.00    0.00
0.00    0.00    0.00    0.00    0.00    0.00    0.00    0.00    0.00    0.00    0.00    0.00    0.00    0.00    0.00    0.00    5.00    5.00    5.00   14.82   16.35   17.62   17.61   16.71   16.21   16.47   17.18   18.50   20.09   21.75   23.51   25.41   27.36   29.15   30.66   32.09   33.76   35.82   38.02   39.84   40.54   39.77   37.85   35.58   33.64   32.18   31.09   30.38   30.05   29.95   29.84   29.57   29.00   27.91   25.95   22.88   18.98   15.07   12.36    5.00    5.00    5.00    5.00    5.00    5.00    0.00    0.00    0.00    0.00    0.00    0.00    0.00    0.00    0.00    0.00    0.00    0.00    0.00    5.00   11.65   12.85   14.21   14.83   14.24   12.67   11.08    5.00    5.00    5.00    5.00    5.00    5.00    0.00    0.00    0.00    0.00    0.00    0.00    0.00    0.00    0.00    0.00    0.00    0.00    0.00
0.00    0.00    0.00    0.00    0.00    0.00    0.00    0.00    0.00    0.00    0.00    0.00    0.00    0.00    0.00    0.00    0.00    0.00    0.00   13.64   15.40   17.26   18.15   18.20   18.12   18.52   19.36   20.47   21.62   22.75   23.97   25.35   26.83   28.22   29.46   30.70   32.20   34.15   36.45   38.69   40.09   40.05   38.45   35.94   33.53   31.65   30.27   29.41   29.03   28.93   28.87   28.68   28.18   27.21   25.49   22.68   18.95   15.10   12.45    5.00    5.00    5.00    5.00    5.00    5.00    0.00    0.00    0.00    0.00    0.00    0.00    0.00    0.00    0.00    0.00    0.00    0.00    0.00    5.00   12.19   12.85   13.60   13.97   13.48   12.14   10.44    8.66    7.29    5.00    5.00    5.00    0.00    0.00    0.00    0.00    0.00    0.00    0.00    0.00    0.00    0.00    0.00    0.00    0.00    0.00
0.00    0.00    0.00    0.00    0.00    0.00    0.00    0.00    0.00    0.00    0.00    0.00    0.00    0.00    0.00    0.00    0.00    0.00    0.00   12.50   14.08   16.19   17.85   18.95   19.70   20.38   21.07   21.84   22.69   23.64   24.63   25.67   26.73   27.74   28.72   29.76   31.07   32.86   35.07   37.38   39.13   39.68   38.56   36.08   33.41   31.29   29.77   28.83   28.38   28.20   28.12   27.95   27.53   26.70   25.24   22.79   19.43   15.83   13.21    5.00    5.00    5.00    5.00    5.00    5.00    0.00    0.00    0.00    0.00    0.00    0.00    0.00    0.00    0.00    0.00    0.00    0.00    0.00    0.00    5.00   12.62   12.79   13.02   12.61   11.56   10.16    9.02    5.00    5.00    5.00    5.00    0.00    0.00    0.00    0.00    0.00    0.00    0.00    0.00    0.00    0.00    0.00    0.00    0.00    0.00
0.00    0.00    0.00    0.00    0.00    0.00    0.00    0.00    0.00    0.00    0.00    0.00    0.00    0.00    0.00    0.00    0.00    0.00    0.00    5.00   12.86   14.56   16.50   18.36   19.93   21.14   22.00   22.70   23.48   24.43   25.40   26.28   27.07   27.77   28.44   29.18   30.25   31.86   33.89   36.06   37.90   38.81   38.24   36.11   33.46   31.25   29.68   28.68   28.11   27.80   27.63   27.45   27.10   26.42   25.21   23.18   20.26   16.90   13.85   11.52    9.92    5.00    5.00    5.00    5.00    0.00    0.00    0.00    0.00    0.00    0.00    0.00    0.00    0.00    0.00    0.00    0.00    0.00    0.00    0.00    5.00   12.04   12.20   11.54   10.71    9.60    8.72    5.00    5.00    5.00    0.00    0.00    0.00    0.00    0.00    0.00    0.00    0.00    0.00    0.00    0.00    0.00    0.00    0.00    0.00
0.00    0.00    0.00    0.00    0.00    0.00    0.00    0.00    0.00    0.00    0.00    0.00    0.00    0.00    0.00    0.00    0.00    0.00    0.00    5.00   11.51   12.96   14.57   16.69   18.87   20.77   22.15   23.12   24.00   25.02   26.04   26.92   27.62   28.13   28.51   28.90   29.64   31.01   32.83   34.81   36.59   37.69   37.69   36.21   33.85   31.66   30.05   28.99   28.30   27.86   27.59   27.36   27.05   26.48   25.48   23.80   21.32   18.30   15.29   12.69   10.69    9.47    8.62    5.00    5.00    0.00    0.00    0.00    0.00    0.00    0.00    0.00    0.00    0.00    0.00    0.00    0.00    0.00    0.00    0.00    0.00    5.00    5.00   10.01    9.46    8.63    7.96    5.00    5.00    5.00    0.00    0.00    0.00    0.00    0.00    0.00    0.00    0.00    0.00    0.00    0.00    0.00    0.00    0.00    0.00
0.00    0.00    0.00    0.00    0.00    0.00    0.00    0.00    0.00    0.00    0.00    0.00    0.00    0.00    0.00    0.00    0.00    0.00    0.00    5.00    5.00    5.00   13.27   14.86   17.13   19.60   21.63   23.06   24.20   25.34   26.42   27.31   27.99   28.40   28.57   28.65   29.07   30.20   31.84   33.66   35.30   36.41   36.86   36.19   34.46   32.48   30.86   29.73   28.97   28.45   28.11   27.83   27.49   26.93   26.03   24.58   22.45   19.77   16.96   14.34   12.13   10.47    9.32    8.90    5.00    0.00    0.00    0.00    0.00    0.00    0.00    0.00    0.00    0.00    0.00    0.00    0.00    0.00    0.00    0.00    0.00    0.00    5.00    8.77    8.09    7.54    7.20    5.00    5.00    5.00    0.00    0.00    0.00    0.00    0.00    0.00    0.00    0.00    0.00    0.00    0.00    0.00    0.00    0.00    0.00
0.00    0.00    0.00    0.00    0.00    0.00    0.00    0.00    0.00    0.00    0.00    0.00    0.00    0.00    0.00    0.00    0.00    0.00    0.00    0.00    0.00    0.00    5.00   13.93   15.40   17.99   20.58   22.60   24.13   25.41   26.49   27.28   27.84   28.13   28.13   28.04   28.27   29.25   30.78   32.47   33.94   34.89   35.52   35.58   34.68   33.21   31.74   30.62   29.87   29.34   28.98   28.65   28.22   27.57   26.64   25.30   23.43   21.09   18.51   15.94   13.60   11.62   10.09    9.25    5.00    0.00    0.00    0.00    0.00    0.00    0.00    0.00    0.00    0.00    0.00    0.00    0.00    0.00    0.00    0.00    0.00    0.00    5.00    5.00    6.94    6.80    5.00    5.00    5.00    0.00    0.00    0.00    0.00    0.00    0.00    0.00    0.00    0.00    0.00    0.00    0.00    0.00    0.00    0.00    0.00
0.00    0.00    0.00    0.00    0.00    0.00    0.00    0.00    0.00    0.00    0.00    0.00    0.00    0.00    0.00    0.00    0.00    0.00    0.00    0.00    0.00    0.00    0.00    5.00   14.20   16.29   19.14   21.79   23.83   25.32   26.36   27.00   27.35   27.43   27.29   27.17   27.39   28.27   29.62   31.15   32.43   33.16   33.72   34.19   34.01   33.09   31.87   30.86   30.25   29.88   29.60   29.26   28.75   27.98   26.92   25.62   24.01   22.04   19.73   17.24   14.76   12.47   10.58    9.45    5.00    0.00    0.00    0.00    0.00    0.00    0.00    0.00    0.00    0.00    0.00    0.00    0.00    0.00    0.00    0.00    0.00    0.00    5.00    6.30    6.47    5.00    5.00    5.00    5.00    0.00    0.00    0.00    0.00    0.00    0.00    0.00    0.00    0.00    0.00    0.00    0.00    0.00    0.00    0.00    0.00
0.00    0.00    0.00    0.00    0.00    0.00    0.00    0.00    0.00    0.00    0.00    0.00    0.00    0.00    0.00    0.00    0.00    0.00    0.00    0.00    0.00    0.00    0.00    0.00    5.00   15.04   17.37   20.39   23.01   24.87   26.02   26.62   26.85   26.83   26.69   26.65   26.87   27.53   28.48   29.68   30.77   31.34   31.76   32.34   32.52   31.90   30.74   29.66   29.19   29.09   29.04   28.89   28.47   27.68   26.55   25.31   23.99   22.44   20.49   18.13   15.52   12.90   10.65    9.28    5.00    0.00    0.00    0.00    0.00    0.00    0.00    0.00    0.00    0.00    0.00    0.00    0.00    0.00    0.00    0.00    0.00    0.00    5.00    6.38    6.42    5.00    5.00    5.00    0.00    0.00    0.00    0.00    0.00    0.00    0.00    0.00    0.00    0.00    0.00    0.00    0.00    0.00    0.00    0.00    0.00
0.00    0.00    0.00    0.00    0.00    0.00    0.00    0.00    0.00    0.00    0.00    0.00    0.00    0.00    0.00    0.00    0.00    0.00    0.00    0.00    0.00    0.00    0.00    0.00    5.00   13.38   15.16   18.23   21.33   23.71   25.23   26.01   26.29   26.31   26.33   26.46   26.65   26.94   27.35   28.13   29.05   29.59   29.97   30.47   30.71   30.22   29.00   27.64   26.99   26.95   27.10   27.22   27.09   26.51   25.53   24.48   23.46   22.32   20.75   18.59   15.90   13.00   10.53    9.00    5.00    0.00    0.00    0.00    0.00    0.00    0.00    0.00    0.00    0.00    0.00    0.00    0.00    0.00    0.00    0.00    0.00    0.00    5.00    6.31    6.22    5.00    5.00    0.00    0.00    0.00    0.00    0.00    0.00    0.00    0.00    0.00    0.00    0.00    0.00    0.00    0.00    0.00    0.00    0.00    0.00
0.00    0.00    0.00    0.00    0.00    0.00    0.00    0.00    0.00    0.00    0.00    0.00    0.00    0.00    0.00    0.00    0.00    0.00    0.00    0.00    0.00    0.00    0.00    0.00    0.00    5.00   13.80   16.17   19.21   21.94   23.87   24.93   25.32   25.43   25.64   25.97   26.17   26.19   26.21   26.66   27.45   28.05   28.47   28.82   28.91   28.51   27.42   25.89   24.93   24.70   24.82   25.05   25.15   24.86   24.19   23.41   22.66   21.84   20.62   18.67   15.95   12.93   10.70    5.00    5.00    0.00    0.00    0.00    0.00    0.00    0.00    0.00    0.00    0.00    0.00    0.00    0.00    0.00    0.00    0.00    0.00    0.00    0.00    5.00    5.90    5.00    5.00    0.00    0.00    0.00    0.00    0.00    0.00    0.00    0.00    0.00    0.00    0.00    0.00    0.00    0.00    0.00    0.00    0.00    0.00
0.00    0.00    0.00    0.00    0.00    0.00    0.00    0.00    0.00    0.00    0.00    0.00    0.00    0.00    0.00    0.00    0.00    0.00    0.00    0.00    0.00    0.00    0.00    0.00    0.00    0.00    5.00   15.42   17.54   20.08   22.15   23.34   23.78   23.95   24.29   24.78   25.06   25.04   24.99   25.32   26.05   26.77   27.33   27.55   27.34   26.96   26.20   24.75   23.56   23.09   23.09   23.30   23.47   23.37   22.92   22.35   21.79   21.17   20.16   18.39   15.71   12.63   10.38    5.00    5.00    0.00    0.00    0.00    0.00    0.00    0.00    0.00    0.00    0.00    0.00    0.00    0.00    0.00    0.00    0.00    0.00    0.00    0.00    5.00    5.00    5.00    0.00    0.00    0.00    0.00    0.00    0.00    0.00    0.00    0.00    0.00    0.00    0.00    0.00    0.00    0.00    0.00    0.00    0.00    0.00
0.00    0.00    0.00    0.00    0.00    0.00    0.00    0.00    0.00    0.00    0.00    0.00    0.00    0.00    0.00    0.00    0.00    0.00    0.00    0.00    0.00    0.00    0.00    0.00    0.00    0.00    0.00    5.00   16.65   18.48   20.36   21.47   21.88   22.13   22.62   23.24   23.67   23.83   23.96   24.34   25.04   25.90   26.65   26.84   26.34   25.84   25.34   24.12   22.78   22.08   21.93   22.05   22.21   22.19   21.90   21.46   20.98   20.40   19.47   17.82   15.29   12.32   10.12    5.00    5.00    5.00    0.00    0.00    0.00    0.00    0.00    0.00    0.00    0.00    0.00    0.00    0.00    0.00    0.00    0.00    0.00    0.00    0.00    0.00    0.00    0.00    0.00    0.00    0.00    0.00    0.00    0.00    0.00    0.00    0.00    0.00    0.00    0.00    0.00    0.00    0.00    0.00    0.00    0.00    0.00
0.00    0.00    0.00    0.00    0.00    0.00    0.00    0.00    0.00    0.00    0.00    0.00    0.00    0.00    0.00    0.00    0.00    0.00    0.00    0.00    0.00    0.00    0.00    0.00    0.00    0.00    0.00    5.00   15.28   16.85   18.55   19.48   19.81   20.17   20.88   21.74   22.48   22.99   23.41   23.88   24.55   25.46   26.34   26.52   25.82   25.10   24.71   23.84   22.53   21.61   21.24   21.19   21.25   21.25   21.06   20.71   20.25   19.60   18.61   17.02   14.71   12.02    9.97    5.00    5.00    5.00    5.00    0.00    0.00    0.00    0.00    0.00    0.00    0.00    0.00    0.00    0.00    0.00    0.00    0.00    0.00    0.00    0.00    0.00    0.00    0.00    0.00    0.00    0.00    0.00    0.00    0.00    0.00    0.00    0.00    0.00    0.00    0.00    0.00    0.00    0.00    0.00    0.00    0.00    0.00
0.00    0.00    0.00    0.00    0.00    0.00    0.00    0.00    0.00    0.00    0.00    0.00    0.00    0.00    0.00    0.00    0.00    0.00    0.00    0.00    0.00    0.00    0.00    0.00    0.00    0.00    0.00    5.00   14.09   15.28   16.71   17.38   17.47   17.96   18.97   20.21   21.42   22.43   23.24   23.88   24.54   25.39   26.22   26.31   25.47   24.51   24.14   23.71   22.70   21.67   20.99   20.66   20.54   20.49   20.36   20.11   19.70   18.97   17.87   16.26   14.13   11.71    9.50    7.73    6.69    6.12    5.00    0.00    0.00    0.00    0.00    0.00    0.00    0.00    0.00    0.00    0.00    0.00    0.00    0.00    0.00    0.00    0.00    0.00    0.00    0.00    0.00    0.00    0.00    0.00    0.00    0.00    0.00    0.00    0.00    0.00    0.00    0.00    0.00    0.00    0.00    0.00    0.00    0.00    0.00
0.00    0.00    0.00    0.00    0.00    0.00    0.00    0.00    0.00    0.00    0.00    0.00    0.00    0.00    0.00    0.00    0.00    0.00    0.00    0.00    0.00    0.00    0.00    0.00    0.00    0.00    0.00    0.00    5.00   14.38   15.30   15.62   14.94   15.48   16.88   18.60   20.33   21.86   23.08   23.99   24.74   25.51   26.13   26.03   25.07   23.92   23.44   23.36   22.90   22.06   21.20   20.56   20.19   20.03   19.90   19.72   19.42   18.75   17.60   15.98   13.96   11.80    9.79    8.19    7.26    5.00    5.00    5.00    0.00    0.00    0.00    0.00    0.00    0.00    0.00    0.00    0.00    0.00    0.00    0.00    0.00    0.00    0.00    0.00    0.00    0.00    0.00    0.00    0.00    0.00    0.00    0.00    0.00    0.00    0.00    0.00    0.00    0.00    0.00    0.00    0.00    0.00    0.00    0.00    0.00
0.00    0.00    0.00    0.00    0.00    0.00    0.00    0.00    0.00    0.00    0.00    0.00    0.00    0.00    0.00    0.00    0.00    0.00    0.00    0.00    0.00    0.00    0.00    0.00    0.00    0.00    0.00    0.00    0.00    5.00    5.00    5.00   12.57   13.09   14.79   16.85   19.01   20.96   22.53   23.73   24.68   25.46   25.89   25.64   24.66   23.43   22.79   22.74   22.66   22.24   21.59   20.91   20.38   20.12   19.96   19.77   19.54   19.03   17.99   16.42   14.52   12.56   10.76    9.27    8.33    5.00    5.00    5.00    0.00    0.00    0.00    0.00    0.00    0.00    0.00    0.00    0.00    0.00    0.00    0.00    0.00    0.00    0.00    0.00    0.00    0.00    0.00    0.00    0.00    0.00    0.00    0.00    0.00    0.00    0.00    0.00    0.00    0.00    0.00    0.00    0.00    0.00    0.00    0.00    0.00
0.00    0.00    0.00    0.00    0.00    0.00    0.00    0.00    0.00    0.00    0.00    0.00    0.00    0.00    0.00    0.00    0.00    0.00    0.00    0.00    0.00    0.00    0.00    0.00    0.00    0.00    0.00    0.00    0.00    0.00    0.00    0.00    5.00   11.64   13.22   14.95   17.15   19.32   21.11   22.57   23.81   24.77   25.25   25.07   24.26   23.17   22.44   22.17   21.98   21.73   21.47   21.19   20.92   20.81   20.73   20.51   20.23   19.84   19.02   17.67   16.01   14.31   12.71   11.27   10.22    5.00    5.00    5.00    0.00    0.00    0.00    0.00    0.00    0.00    0.00    0.00    0.00    0.00    0.00    0.00    0.00    0.00    0.00    0.00    0.00    0.00    0.00    0.00    0.00    0.00    0.00    0.00    0.00    0.00    0.00    0.00    0.00    0.00    0.00    0.00    0.00    0.00    0.00    0.00    0.00
0.00    0.00    0.00    0.00    0.00    0.00    0.00    0.00    0.00    0.00    0.00    0.00    0.00    0.00    0.00    0.00    0.00    0.00    0.00    0.00    0.00    0.00    0.00    0.00    0.00    0.00    0.00    0.00    0.00    0.00    0.00    0.00    0.00    5.00    5.00   13.20   14.91   16.99   18.69   20.30   21.86   23.16   23.94   24.12   23.70   22.92   22.24   21.78   21.28   20.78   20.55   20.59   20.77   21.15   21.49   21.52   21.36   21.10   20.55   19.60   18.39   17.07   15.68   14.20   12.69   11.65   10.40    5.00    5.00    0.00    0.00    0.00    0.00    0.00    0.00    0.00    0.00    0.00    0.00    0.00    0.00    0.00    0.00    0.00    0.00    0.00    0.00    0.00    0.00    0.00    0.00    0.00    0.00    0.00    0.00    0.00    0.00    0.00    0.00    0.00    0.00    0.00    0.00    0.00    0.00
0.00    0.00    0.00    0.00    0.00    0.00    0.00    0.00    0.00    0.00    0.00    0.00    0.00    0.00    0.00    0.00    0.00    0.00    0.00    0.00    0.00    0.00    0.00    0.00    0.00    0.00    0.00    0.00    0.00    0.00    0.00    0.00    0.00    0.00    5.00   11.49   13.03   14.86   15.78   17.13   18.90   20.59   21.83   22.56   22.74   22.42   21.95   21.47   20.85   20.15   19.65   19.46   19.59   20.13   20.85   21.42   21.80   21.97   21.84   21.43   20.83   20.01   18.93   17.49   15.70   13.79   12.02   11.26    5.00    5.00    0.00    0.00    0.00    0.00    0.00    0.00    0.00    0.00    0.00    0.00    0.00    0.00    0.00    0.00    0.00    0.00    0.00    0.00    0.00    0.00    0.00    0.00    0.00    0.00    0.00    0.00    0.00    0.00    0.00    0.00    0.00    0.00    0.00    0.00    0.00
0.00    0.00    0.00    0.00    0.00    0.00    0.00    0.00    0.00    0.00    0.00    0.00    0.00    0.00    0.00    0.00    0.00    0.00    0.00    0.00    0.00    0.00    0.00    0.00    0.00    0.00    0.00    0.00    0.00    0.00    0.00    0.00    0.00    0.00    0.00    5.00    5.00    5.00   13.42   13.78   15.43   17.37   18.97   20.27   21.10   21.32   21.21   20.92   20.46   19.86   19.29   18.83   18.59   18.77   19.27   19.93   20.66   21.25   21.62   21.85   21.98   21.82   21.24   20.16   18.54   16.53   14.40   12.82    5.00    5.00    0.00    0.00    0.00    0.00    0.00    0.00    0.00    0.00    0.00    0.00    0.00    0.00    0.00    0.00    0.00    0.00    0.00    0.00    0.00    0.00    0.00    0.00    0.00    0.00    0.00    0.00    0.00    0.00    0.00    0.00    0.00    0.00    0.00    0.00    0.00
0.00    0.00    0.00    0.00    0.00    0.00    0.00    0.00    0.00    0.00    0.00    0.00    0.00    0.00    0.00    0.00    0.00    0.00    0.00    0.00    0.00    0.00    0.00    0.00    0.00    0.00    0.00    0.00    0.00    0.00    0.00    0.00    0.00    0.00    0.00    0.00    0.00    0.00    5.00   11.36   12.84   14.75   16.01   17.50   18.71   19.17   19.44   19.55   19.52   19.28   18.89   18.39   17.93   17.78   17.96   18.36   18.96   19.57   20.13   20.74   21.46   22.03   22.17   21.71   20.58   18.85   16.63   14.22   12.44    5.00    0.00    0.00    0.00    0.00    0.00    0.00    0.00    0.00    0.00    0.00    0.00    0.00    0.00    0.00    0.00    0.00    0.00    0.00    0.00    0.00    0.00    0.00    0.00    0.00    0.00    0.00    0.00    0.00    0.00    0.00    0.00    0.00    0.00    0.00    0.00
0.00    0.00    0.00    0.00    0.00    0.00    0.00    0.00    0.00    0.00    0.00    0.00    0.00    0.00    0.00    0.00    0.00    0.00    0.00    0.00    0.00    0.00    0.00    0.00    0.00    0.00    0.00    0.00    0.00    0.00    0.00    0.00    0.00    0.00    0.00    0.00    0.00    0.00    0.00    5.00    5.00    5.00   14.16   15.32   16.39   16.11   16.53   17.04   17.62   17.90   17.82   17.46   17.01   16.77   16.83   17.08   17.50   18.01   18.53   19.18   20.08   21.11   21.88   22.05   21.44   20.15   18.26   15.78   13.24   11.62    5.00    0.00    0.00    0.00    0.00    0.00    0.00    0.00    0.00    0.00    0.00    0.00    0.00    0.00    0.00    0.00    0.00    0.00    0.00    0.00    0.00    0.00    0.00    0.00    0.00    0.00    0.00    0.00    0.00    0.00    0.00    0.00    0.00    0.00    0.00
0.00    0.00    0.00    0.00    0.00    0.00    0.00    0.00    0.00    0.00    0.00    0.00    0.00    0.00    0.00    0.00    0.00    0.00    0.00    0.00    0.00    0.00    0.00    0.00    0.00    0.00    0.00    0.00    0.00    0.00    0.00    0.00    0.00    0.00    0.00    0.00    0.00    0.00    0.00    0.00    0.00    0.00    5.00    5.00    5.00   13.21   13.76   14.02   15.00   15.66   15.91   15.76   15.41   15.20   15.27   15.53   15.95   16.54   17.18   17.88   18.76   19.86   20.88   21.33   20.99   20.07   18.75   16.81   14.44   12.66    5.00    0.00    0.00    0.00    0.00    0.00    0.00    0.00    0.00    0.00    0.00    0.00    0.00    0.00    0.00    0.00    0.00    0.00    0.00    0.00    0.00    0.00    0.00    0.00    0.00    0.00    0.00    0.00    0.00    0.00    0.00    0.00    0.00    0.00    0.00
0.00    0.00    0.00    0.00    0.00    0.00    0.00    0.00    0.00    0.00    0.00    0.00    0.00    0.00    0.00    0.00    0.00    0.00    0.00    0.00    0.00    0.00    0.00    0.00    0.00    0.00    0.00    0.00    0.00    0.00    0.00    0.00    0.00    0.00    0.00    0.00    0.00    0.00    0.00    0.00    0.00    0.00    0.00    0.00    0.00    5.00    5.00   11.82   12.81   13.14   13.49   13.53   13.32   13.17   13.26   13.53   13.93   14.72   15.70   16.70   17.72   18.83   19.84   20.25   19.78   18.90   18.10   16.89   15.02   13.31    5.00    5.00    0.00    0.00    0.00    0.00    0.00    0.00    0.00    0.00    0.00    0.00    0.00    0.00    0.00    0.00    0.00    0.00    0.00    0.00    0.00    0.00    0.00    0.00    0.00    0.00    0.00    0.00    0.00    0.00    0.00    0.00    0.00    0.00    0.00
0.00    0.00    0.00    0.00    0.00    0.00    0.00    0.00    0.00    0.00    0.00    0.00    0.00    0.00    0.00    0.00    0.00    0.00    0.00    0.00    0.00    0.00    0.00    0.00    0.00    0.00    0.00    0.00    0.00    0.00    0.00    0.00    0.00    0.00    0.00    0.00    0.00    0.00    0.00    0.00    0.00    0.00    0.00    0.00    0.00    5.00    5.00    5.00    5.00   11.27   11.60   11.76   11.67   11.59   11.68   11.83   11.76   12.59   13.91   15.36   16.77   18.09   19.17   19.48   18.63   17.37   16.75   16.18   14.81   12.82   10.61    9.22    5.00    0.00    0.00    0.00    0.00    0.00    0.00    0.00    0.00    0.00    0.00    0.00    0.00    0.00    0.00    0.00    0.00    0.00    0.00    0.00    0.00    0.00    0.00    0.00    0.00    0.00    0.00    0.00    0.00    0.00    0.00    0.00    0.00
0.00    0.00    0.00    0.00    0.00    0.00    0.00    0.00    0.00    0.00    0.00    0.00    0.00    0.00    0.00    0.00    0.00    0.00    0.00    0.00    0.00    0.00    0.00    0.00    0.00    0.00    0.00    0.00    0.00    0.00    0.00    0.00    0.00    0.00    0.00    0.00    0.00    0.00    0.00    0.00    0.00    0.00    0.00    0.00    0.00    0.00    5.00    5.00    0.00    5.00    5.00    5.00    5.00    5.00    5.00    5.00   10.03   10.68   12.10   13.89   15.74   17.43   18.76   19.18   18.06   16.19   15.25   15.02   14.28   12.75   10.91    9.64    5.00    5.00    0.00    0.00    0.00    0.00    0.00    0.00    0.00    0.00    0.00    0.00    0.00    0.00    0.00    0.00    0.00    0.00    0.00    0.00    0.00    0.00    0.00    0.00    0.00    0.00    0.00    0.00    0.00    0.00    0.00    0.00    0.00
0.00    0.00    0.00    0.00    0.00    0.00    0.00    0.00    0.00    0.00    0.00    0.00    0.00    0.00    0.00    0.00    0.00    0.00    0.00    0.00    0.00    0.00    0.00    0.00    0.00    0.00    0.00    0.00    0.00    0.00    0.00    0.00    0.00    0.00    0.00    0.00    0.00    0.00    0.00    0.00    0.00    0.00    0.00    0.00    0.00    0.00    0.00    0.00    0.00    0.00    0.00    0.00    0.00    0.00    5.00    5.00    5.00    9.64   10.65   12.43   14.55   16.62   18.34   19.15   18.16   15.78   14.10   13.76   13.58   12.69   11.29   10.14    5.00    5.00    5.00    5.00    0.00    0.00    0.00    0.00    0.00    0.00    0.00    0.00    0.00    0.00    0.00    0.00    0.00    0.00    0.00    0.00    0.00    0.00    0.00    0.00    0.00    0.00    0.00    0.00    0.00    0.00    0.00    0.00    0.00
0.00    0.00    0.00    0.00    0.00    0.00    0.00    0.00    0.00    0.00    0.00    0.00    0.00    0.00    0.00    0.00    0.00    0.00    0.00    0.00    0.00    0.00    0.00    0.00    0.00    0.00    0.00    0.00    0.00    0.00    0.00    0.00    0.00    0.00    0.00    0.00    0.00    0.00    0.00    0.00    0.00    0.00    0.00    0.00    0.00    0.00    0.00    0.00    0.00    0.00    0.00    0.00    0.00    0.00    0.00    0.00    5.00    5.00    9.72   11.15   13.23   15.49   17.61   19.03   18.67   16.29   13.81   12.88   12.92   12.60   11.61   10.38    9.48    5.00    5.00    5.00    5.00    0.00    0.00    0.00    0.00    0.00    0.00    0.00    0.00    0.00    0.00    0.00    0.00    0.00    0.00    0.00    0.00    0.00    0.00    0.00    0.00    0.00    0.00    0.00    0.00    0.00    0.00    0.00    0.00
0.00    0.00    0.00    0.00    0.00    0.00    0.00    0.00    0.00    0.00    0.00    0.00    0.00    0.00    0.00    0.00    0.00    0.00    0.00    0.00    0.00    0.00    0.00    0.00    0.00    0.00    0.00    0.00    0.00    0.00    0.00    0.00    0.00    0.00    0.00    0.00    0.00    0.00    0.00    0.00    0.00    0.00    0.00    0.00    0.00    0.00    0.00    0.00    0.00    0.00    0.00    0.00    0.00    0.00    0.00    0.00    0.00    5.00    8.95   10.15   11.99   14.17   16.53   18.57   19.15   17.37   14.42   12.65   12.52   12.57   11.98   10.91    9.79    8.92    8.17    7.69    5.00    5.00    0.00    0.00    0.00    0.00    0.00    0.00    0.00    0.00    0.00    0.00    0.00    0.00    0.00    0.00    0.00    0.00    0.00    0.00    0.00    0.00    0.00    0.00    0.00    0.00    0.00    0.00    0.00
0.00    0.00    0.00    0.00    0.00    0.00    0.00    0.00    0.00    0.00    0.00    0.00    0.00    0.00    0.00    0.00    0.00    0.00    0.00    0.00    0.00    0.00    0.00    0.00    0.00    0.00    0.00    0.00    0.00    0.00    0.00    0.00    0.00    0.00    0.00    0.00    0.00    0.00    0.00    0.00    0.00    0.00    0.00    0.00    0.00    0.00    0.00    0.00    0.00    0.00    0.00    0.00    0.00    0.00    0.00    0.00    0.00    5.00    5.00    9.81   10.99   12.87   15.29   17.78   19.30   18.48   15.54   13.06   12.52   12.68   12.37   11.52   10.44    9.44    8.58    7.90    7.46    5.00    5.00    0.00    0.00    0.00    0.00    0.00    0.00    0.00    0.00    0.00    0.00    0.00    0.00    0.00    0.00    0.00    0.00    0.00    0.00    0.00    0.00    0.00    0.00    0.00    0.00    0.00    0.00
0.00    0.00    0.00    0.00    0.00    0.00    0.00    0.00    0.00    0.00    0.00    0.00    0.00    0.00    0.00    0.00    0.00    0.00    0.00    0.00    0.00    0.00    0.00    0.00    0.00    0.00    0.00    0.00    0.00    0.00    0.00    0.00    0.00    0.00    0.00    0.00    0.00    0.00    0.00    0.00    0.00    0.00    0.00    0.00    0.00    0.00    0.00    0.00    0.00    0.00    0.00    0.00    0.00    0.00    0.00    0.00    0.00    0.00    5.00    5.00   10.32   11.81   14.20   16.93   19.10   19.25   16.74   13.99   13.06   13.07   12.79   12.03   11.03   10.02    9.08    8.24    7.64    5.00    5.00    5.00    0.00    0.00    0.00    0.00    0.00    0.00    0.00    0.00    0.00    0.00    0.00    0.00    0.00    0.00    0.00    0.00    0.00    0.00    0.00    0.00    0.00    0.00    0.00    0.00    0.00
0.00    0.00    0.00    0.00    0.00    0.00    0.00    0.00    0.00    0.00    0.00    0.00    0.00    0.00    0.00    0.00    0.00    0.00    0.00    0.00    0.00    0.00    0.00    0.00    0.00    0.00    0.00    0.00    0.00    0.00    0.00    0.00    0.00    0.00    0.00    0.00    0.00    0.00    0.00    0.00    0.00    0.00    0.00    0.00    0.00    0.00    0.00    0.00    0.00    0.00    0.00    0.00    0.00    0.00    0.00    0.00    0.00    0.00    5.00    5.00    9.75   11.12   13.49   16.31   18.88   19.78   17.92   15.35   14.18   13.83   13.30   12.41   11.39   10.36    9.38    8.42    7.68    5.00    5.00    5.00    0.00    0.00    0.00    0.00    0.00    0.00    0.00    0.00    0.00    0.00    0.00    0.00    0.00    0.00    0.00    0.00    0.00    0.00    0.00    0.00    0.00    0.00    0.00    0.00    0.00
0.00    0.00    0.00    0.00    0.00    0.00    0.00    0.00    0.00    0.00    0.00    0.00    0.00    0.00    0.00    0.00    0.00    0.00    0.00    0.00    0.00    0.00    0.00    0.00    0.00    0.00    0.00    0.00    0.00    0.00    0.00    0.00    0.00    0.00    0.00    0.00    0.00    0.00    0.00    0.00    0.00    0.00    0.00    0.00    0.00    0.00    0.00    0.00    0.00    0.00    0.00    0.00    0.00    0.00    0.00    0.00    0.00    0.00    0.00    5.00    5.00   11.03   13.07   15.93   18.72   20.13   19.01   16.99   15.73   14.90   13.88   12.67   11.46   10.34    9.29    8.27    7.31    6.39    5.00    5.00    0.00    0.00    0.00    0.00    0.00    0.00    0.00    0.00    0.00    0.00    0.00    0.00    0.00    0.00    0.00    0.00    0.00    0.00    0.00    0.00    0.00    0.00    0.00    0.00    0.00
0.00    0.00    0.00    0.00    0.00    0.00    0.00    0.00    0.00    0.00    0.00    0.00    0.00    0.00    0.00    0.00    0.00    0.00    0.00    0.00    0.00    0.00    0.00    0.00    0.00    0.00    0.00    0.00    0.00    0.00    0.00    0.00    0.00    0.00    0.00    0.00    0.00    0.00    0.00    0.00    0.00    0.00    0.00    0.00    0.00    0.00    0.00    0.00    0.00    0.00    0.00    0.00    0.00    0.00    0.00    0.00    0.00    0.00    0.00    5.00    5.00   10.55   12.55   15.49   18.46   20.17   19.66   18.27   17.05   15.79   14.29   12.71   11.23    9.95    8.87    7.99    7.36    5.00    5.00    5.00    0.00    0.00    0.00    0.00    0.00    0.00    0.00    0.00    0.00    0.00    0.00    0.00    0.00    0.00    0.00    0.00    0.00    0.00    0.00    0.00    0.00    0.00    0.00    0.00    0.00
0.00    0.00    0.00    0.00    0.00    0.00    0.00    0.00    0.00    0.00    0.00    0.00    0.00    0.00    0.00    0.00    0.00    0.00    0.00    0.00    0.00    0.00    0.00    0.00    0.00    0.00    0.00    0.00    0.00    0.00    0.00    0.00    0.00    0.00    0.00    0.00    0.00    0.00    0.00    0.00    0.00    0.00    0.00    0.00    0.00    0.00    0.00    0.00    0.00    0.00    0.00    0.00    0.00    0.00    0.00    0.00    0.00    0.00    0.00    0.00    5.00    9.94   11.91   14.87   17.97   19.91   19.83   18.86   17.69   16.18   14.38   12.54   10.83    9.40    8.35    7.77    5.00    5.00    5.00    0.00    0.00    0.00    0.00    0.00    0.00    0.00    0.00    0.00    0.00    0.00    0.00    0.00    0.00    0.00    0.00    0.00    0.00    0.00    0.00    0.00    0.00    0.00    0.00    0.00    0.00
0.00    0.00    0.00    0.00    0.00    0.00    0.00    0.00    0.00    0.00    0.00    0.00    0.00    0.00    0.00    0.00    0.00    0.00    0.00    0.00    0.00    0.00    0.00    0.00    0.00    0.00    0.00    0.00    0.00    0.00    0.00    0.00    0.00    0.00    0.00    0.00    0.00    0.00    0.00    0.00    0.00    0.00    0.00    0.00    0.00    0.00    0.00    0.00    0.00    0.00    0.00    0.00    0.00    0.00    0.00    0.00    0.00    0.00    0.00    0.00    0.00    5.00   11.91   14.38   17.37   19.47   19.68   18.91   17.75   16.17   14.28   12.33   10.45    8.95    8.08    5.00    5.00    5.00    0.00    0.00    0.00    0.00    0.00    0.00    0.00    0.00    0.00    0.00    0.00    0.00    0.00    0.00    0.00    0.00    0.00    0.00    0.00    0.00    0.00    0.00    0.00    0.00    0.00    0.00    0.00
0.00    0.00    0.00    0.00    0.00    0.00    0.00    0.00    0.00    0.00    0.00    0.00    0.00    0.00    0.00    0.00    0.00    0.00    0.00    0.00    0.00    0.00    0.00    0.00    0.00    0.00    0.00    0.00    0.00    0.00    0.00    0.00    0.00    0.00    0.00    0.00    0.00    0.00    0.00    0.00    0.00    0.00    0.00    0.00    0.00    0.00    0.00    0.00    0.00    0.00    0.00    0.00    0.00    0.00    0.00    0.00    0.00    0.00    0.00    0.00    0.00    5.00    5.00   14.46   16.90   19.06   19.44   18.70   17.51   15.98   14.18   12.20   10.23    8.85    5.00    5.00    5.00    0.00    0.00    0.00    0.00    0.00    0.00    0.00    0.00    0.00    0.00    0.00    0.00    0.00    0.00    0.00    0.00    0.00    0.00    0.00    0.00    0.00    0.00    0.00    0.00    0.00    0.00    0.00    0.00
0.00    0.00    0.00    0.00    0.00    0.00    0.00    0.00    0.00    0.00    0.00    0.00    0.00    0.00    0.00    0.00    0.00    0.00    0.00    0.00    0.00    0.00    0.00    0.00    0.00    0.00    0.00    0.00    0.00    0.00    0.00    0.00    0.00    0.00    0.00    0.00    0.00    0.00    0.00    0.00    0.00    0.00    0.00    0.00    0.00    0.00    0.00    0.00    0.00    0.00    0.00    0.00    0.00    0.00    0.00    0.00    0.00    0.00    0.00    0.00    0.00    5.00   10.33   13.38   16.35   18.75   19.27   18.43   17.14   15.73   14.12   12.22   10.19    8.76    5.00    5.00    5.00    0.00    0.00    0.00    0.00    0.00    0.00    0.00    0.00    0.00    0.00    0.00    0.00    0.00    0.00    0.00    0.00    0.00    0.00    0.00    0.00    0.00    0.00    0.00    0.00    0.00    0.00    0.00    0.00
0.00    0.00    0.00    0.00    0.00    0.00    0.00    0.00    0.00    0.00    0.00    0.00    0.00    0.00    0.00    0.00    0.00    0.00    0.00    0.00    0.00    0.00    0.00    0.00    0.00    0.00    0.00    0.00    0.00    0.00    0.00    0.00    0.00    0.00    0.00    0.00    0.00    0.00    0.00    0.00    0.00    0.00    0.00    0.00    0.00    0.00    0.00    0.00    0.00    0.00    0.00    0.00    0.00    0.00    0.00    0.00    0.00    0.00    0.00    0.00    0.00    5.00    5.00   14.12   16.36   18.62   19.14   18.15   16.71   15.46   14.15   12.42   10.39    8.86    5.00    5.00    5.00    0.00    0.00    0.00    0.00    0.00    0.00    0.00    0.00    0.00    0.00    0.00    0.00    0.00    0.00    0.00    0.00    0.00    0.00    0.00    0.00    0.00    0.00    0.00    0.00    0.00    0.00    0.00    0.00
0.00    0.00    0.00    0.00    0.00    0.00    0.00    0.00    0.00    0.00    0.00    0.00    0.00    0.00    0.00    0.00    0.00    0.00    0.00    0.00    0.00    0.00    0.00    0.00    0.00    0.00    0.00    0.00    0.00    0.00    0.00    0.00    0.00    0.00    0.00    0.00    0.00    0.00    0.00    0.00    0.00    0.00    0.00    0.00    0.00    0.00    0.00    0.00    0.00    0.00    0.00    0.00    0.00    0.00    0.00    0.00    0.00    0.00    0.00    0.00    0.00    0.00    5.00   14.37   16.60   18.64   19.08   18.03   16.50   15.33   14.21   12.67   10.72    9.15    5.00    5.00    0.00    0.00    0.00    0.00    0.00    0.00    0.00    0.00    0.00    0.00    0.00    0.00    0.00    0.00    0.00    0.00    0.00    0.00    0.00    0.00    0.00    0.00    0.00    0.00    0.00    0.00    0.00    0.00    0.00
0.00    0.00    0.00    0.00    0.00    0.00    0.00    0.00    0.00    0.00    0.00    0.00    0.00    0.00    0.00    0.00    0.00    0.00    0.00    0.00    0.00    0.00    0.00    0.00    0.00    0.00    0.00    0.00    0.00    0.00    0.00    0.00    0.00    0.00    0.00    0.00    0.00    0.00    0.00    0.00    0.00    0.00    0.00    0.00    0.00    0.00    0.00    0.00    0.00    0.00    0.00    0.00    0.00    0.00    0.00    0.00    0.00    0.00    0.00    0.00    0.00    0.00    5.00    5.00   17.12   18.44   18.89   18.12   16.80   15.62   14.43   12.96   11.18    9.70    5.00    5.00    0.00    0.00    0.00    0.00    0.00    0.00    0.00    0.00    0.00    0.00    0.00    0.00    0.00    0.00    0.00    0.00    0.00    0.00    0.00    0.00    0.00    0.00    0.00    0.00    0.00    0.00    0.00    0.00    0.00
0.00    0.00    0.00    0.00    0.00    0.00    0.00    0.00    0.00    0.00    0.00    0.00    0.00    0.00    0.00    0.00    0.00    0.00    0.00    0.00    0.00    0.00    0.00    0.00    0.00    0.00    0.00    0.00    0.00    0.00    0.00    0.00    0.00    0.00    0.00    0.00    0.00    0.00    0.00    0.00    0.00    0.00    0.00    0.00    0.00    0.00    0.00    0.00    0.00    0.00    0.00    0.00    0.00    0.00    0.00    0.00    0.00    0.00    0.00    0.00    0.00    0.00    0.00    5.00   15.83   17.17   18.05   17.89   17.22   16.26   14.97   13.46   11.76   10.35    5.00    5.00    0.00    0.00    0.00    0.00    0.00    0.00    0.00    0.00    0.00    0.00    0.00    0.00    0.00    0.00    0.00    0.00    0.00    0.00    0.00    0.00    0.00    0.00    0.00    0.00    0.00    0.00    0.00    0.00    0.00
0.00    0.00    0.00    0.00    0.00    0.00    0.00    0.00    0.00    0.00    0.00    0.00    0.00    0.00    0.00    0.00    0.00    0.00    0.00    0.00    0.00    0.00    0.00    0.00    0.00    0.00    0.00    0.00    0.00    0.00    0.00    0.00    0.00    0.00    0.00    0.00    0.00    0.00    0.00    0.00    0.00    0.00    0.00    0.00    0.00    0.00    0.00    0.00    0.00    0.00    0.00    0.00    0.00    0.00    0.00    0.00    0.00    0.00    0.00    0.00    0.00    0.00    0.00    5.00   14.11   15.59   16.80   16.77   16.91   16.71   15.73   14.23   12.41   10.69    9.55    5.00    0.00    0.00    0.00    0.00    0.00    0.00    0.00    0.00    0.00    0.00    0.00    0.00    0.00    0.00    0.00    0.00    0.00    0.00    0.00    0.00    0.00    0.00    0.00    0.00    0.00    0.00    0.00    0.00    0.00
0.00    0.00    0.00    0.00    0.00    0.00    0.00    0.00    0.00    0.00    0.00    0.00    0.00    0.00    0.00    0.00    0.00    0.00    0.00    0.00    0.00    0.00    0.00    0.00    0.00    0.00    0.00    0.00    0.00    0.00    0.00    0.00    0.00    0.00    0.00    0.00    0.00    0.00    0.00    0.00    0.00    0.00    0.00    0.00    0.00    0.00    0.00    0.00    0.00    0.00    0.00    0.00    0.00    0.00    0.00    0.00    0.00    0.00    0.00    0.00    0.00    0.00    0.00    5.00    5.00    5.00    5.00   15.24   15.64   16.35   16.17   14.98   13.18   11.25    9.61    8.39    5.00    5.00    0.00    0.00    0.00    0.00    0.00    0.00    0.00    0.00    0.00    0.00    0.00    0.00    0.00    0.00    0.00    0.00    0.00    0.00    0.00    0.00    0.00    0.00    0.00    0.00    0.00    0.00    0.00
0.00    0.00    0.00    0.00    0.00    0.00    0.00    0.00    0.00    0.00    0.00    0.00    0.00    0.00    0.00    0.00    0.00    0.00    0.00    0.00    0.00    0.00    0.00    0.00    0.00    0.00    0.00    0.00    0.00    0.00    0.00    0.00    0.00    0.00    0.00    0.00    0.00    0.00    0.00    0.00    0.00    0.00    0.00    0.00    0.00    0.00    0.00    0.00    0.00    0.00    0.00    0.00    0.00    0.00    0.00    0.00    0.00    0.00    0.00    0.00    0.00    0.00    0.00    5.00    5.00    5.00    5.00    5.00   14.05   15.17   15.75   15.17   13.76   11.93   10.12    8.60    7.73    5.00    5.00    5.00    5.00    0.00    0.00    0.00    0.00    0.00    0.00    0.00    0.00    0.00    0.00    0.00    0.00    0.00    0.00    0.00    0.00    0.00    0.00    0.00    0.00    0.00    0.00    0.00    0.00
0.00    0.00    0.00    0.00    0.00    0.00    0.00    0.00    0.00    0.00    0.00    0.00    0.00    0.00    0.00    0.00    0.00    0.00    0.00    0.00    0.00    0.00    0.00    0.00    0.00    0.00    0.00    0.00    0.00    0.00    0.00    0.00    0.00    0.00    0.00    0.00    0.00    0.00    0.00    0.00    0.00    0.00    0.00    0.00    0.00    0.00    0.00    0.00    0.00    0.00    0.00    0.00    0.00    0.00    0.00    0.00    0.00    0.00    0.00    0.00    0.00    0.00    0.00    0.00    0.00    0.00    5.00    5.00   12.15   13.49   14.55   14.56   13.90   12.60   10.85    9.17    7.97    7.34    5.00    5.00    5.00    5.00    5.00    0.00    0.00    0.00    0.00    0.00    0.00    0.00    0.00    0.00    0.00    0.00    0.00    0.00    0.00    0.00    0.00    0.00    0.00    0.00    0.00    0.00    0.00
0.00    0.00    0.00    0.00    0.00    0.00    0.00    0.00    0.00    0.00    0.00    0.00    0.00    0.00    0.00    0.00    0.00    0.00    0.00    0.00    0.00    0.00    0.00    0.00    0.00    0.00    0.00    0.00    0.00    0.00    0.00    0.00    0.00    0.00    0.00    0.00    0.00    0.00    0.00    0.00    0.00    0.00    0.00    0.00    0.00    0.00    0.00    0.00    0.00    0.00    0.00    0.00    0.00    0.00    0.00    0.00    0.00    0.00    0.00    0.00    0.00    0.00    0.00    0.00    0.00    0.00    0.00    5.00   10.76   12.04   13.21   13.58   13.64   13.20   11.91   10.23    8.73    7.67    7.24    5.00    5.00    5.00    5.00    0.00    0.00    0.00    0.00    0.00    0.00    0.00    0.00    0.00    0.00    0.00    0.00    0.00    0.00    0.00    0.00    0.00    0.00    0.00    0.00    0.00    0.00
0.00    0.00    0.00    0.00    0.00    0.00    0.00    0.00    0.00    0.00    0.00    0.00    0.00    0.00    0.00    0.00    0.00    0.00    0.00    0.00    0.00    0.00    0.00    0.00    0.00    0.00    0.00    0.00    0.00    0.00    0.00    0.00    0.00    0.00    0.00    0.00    0.00    0.00    0.00    0.00    0.00    0.00    0.00    0.00    0.00    0.00    0.00    0.00    0.00    0.00    0.00    0.00    0.00    0.00    0.00    0.00    0.00    0.00    0.00    0.00    0.00    0.00    0.00    0.00    0.00    0.00    0.00    5.00    5.00   11.35   12.10   12.58   13.31   13.78   13.33   11.97   10.21    8.29    7.57    7.23    6.57    6.04    5.00    0.00    0.00    0.00    0.00    0.00    0.00    0.00    0.00    0.00    0.00    0.00    0.00    0.00    0.00    0.00    0.00    0.00    0.00    0.00    0.00    0.00    0.00
0.00    0.00    0.00    0.00    0.00    0.00    0.00    0.00    0.00    0.00    0.00    0.00    0.00    0.00    0.00    0.00    0.00    0.00    0.00    0.00    0.00    0.00    0.00    0.00    0.00    0.00    0.00    0.00    0.00    0.00    0.00    0.00    0.00    0.00    0.00    0.00    0.00    0.00    0.00    0.00    0.00    0.00    0.00    0.00    0.00    0.00    0.00    0.00    0.00    0.00    0.00    0.00    0.00    0.00    0.00    0.00    0.00    0.00    0.00    0.00    0.00    0.00    0.00    0.00    0.00    0.00    0.00    0.00    5.00   10.54   11.12   11.33   12.98   14.20   14.56   14.01   12.67    5.00    5.00    5.00    5.00    5.00    0.00    0.00    0.00    0.00    0.00    0.00    0.00    0.00    0.00    0.00    0.00    0.00    0.00    0.00    0.00    0.00    0.00    0.00    0.00    0.00    0.00    0.00    0.00
0.00    0.00    0.00    0.00    0.00    0.00    0.00    0.00    0.00    0.00    0.00    0.00    0.00    0.00    0.00    0.00    0.00    0.00    0.00    0.00    0.00    0.00    0.00    0.00    0.00    0.00    0.00    0.00    0.00    0.00    0.00    0.00    0.00    0.00    0.00    0.00    0.00    0.00    0.00    0.00    0.00    0.00    0.00    0.00    0.00    0.00    0.00    0.00    0.00    0.00    0.00    0.00    0.00    0.00    0.00    0.00    0.00    0.00    0.00    0.00    0.00    0.00    0.00    0.00    0.00    0.00    0.00    0.00    0.00    5.00    5.00    9.34    5.00    5.00    5.00   15.30   13.94   12.53    5.00    5.00    0.00    0.00    0.00    0.00    0.00    0.00    0.00    0.00    0.00    0.00    0.00    0.00    0.00    0.00    0.00    0.00    0.00    0.00    0.00    0.00    0.00    0.00    0.00    0.00    0.00
0.00    0.00    0.00    0.00    0.00    0.00    0.00    0.00    0.00    0.00    0.00    0.00    0.00    0.00    0.00    0.00    0.00    0.00    0.00    0.00    0.00    0.00    0.00    0.00    0.00    0.00    0.00    0.00    0.00    0.00    0.00    0.00    0.00    0.00    0.00    0.00    0.00    0.00    0.00    0.00    0.00    0.00    0.00    0.00    0.00    0.00    0.00    0.00    0.00    0.00    0.00    0.00    0.00    0.00    0.00    0.00    0.00    0.00    0.00    0.00    0.00    0.00    0.00    0.00    0.00    0.00    0.00    0.00    0.00    0.00    0.00    0.00    0.00    5.00   15.26   15.63   14.64   12.47   10.41    5.00    0.00    0.00    0.00    0.00    0.00    0.00    0.00    0.00    0.00    0.00    0.00    0.00    0.00    0.00    0.00    0.00    0.00    0.00    0.00    0.00    0.00    0.00    0.00    0.00    0.00
0.00    0.00    0.00    0.00    0.00    0.00    0.00    0.00    0.00    0.00    0.00    0.00    0.00    0.00    0.00    0.00    0.00    0.00    0.00    0.00    0.00    0.00    0.00    0.00    0.00    0.00    0.00    0.00    0.00    0.00    0.00    0.00    0.00    0.00    0.00    0.00    0.00    0.00    0.00    0.00    0.00    0.00    0.00    0.00    0.00    0.00    0.00    0.00    0.00    0.00    0.00    0.00    0.00    0.00    0.00    0.00    0.00    0.00    0.00    0.00    0.00    0.00    0.00    0.00    0.00    0.00    0.00    0.00    0.00    0.00    0.00    0.00    0.00    5.00   15.08   15.46   14.95   12.91   10.75    5.00    0.00    0.00    0.00    0.00    0.00    0.00    0.00    0.00    0.00    0.00    0.00    0.00    0.00    0.00    0.00    0.00    0.00    0.00    0.00    0.00    0.00    0.00    0.00    0.00    0.00
